
-289.0944756 -195.2980000 1021.2019069
-303.4359234 -158.6730000 1006.3193474
-301.5169858 -168.6580000 1004.7926050
-301.1072360 -178.8170000 1002.2893748
-298.6498985 -159.3000000 1010.9435794
-294.9863066 -179.9850000 1009.3372732
-293.8154225 -168.2700000 1015.1986007
-293.6841422 -159.8020000 1017.9913172
-292.3229696 -180.3220000 1014.7845845
-305.3080900 -150.3480000 1007.9169169
-302.3071616 -138.6130000 1014.8803509
-301.1640292 -147.0840000 1012.8199875
-297.2706446 -135.4030000 1020.7391426
-295.5794244 -150.6090000 1018.0482486
-304.3178355 -126.0270000 1018.6258303
-304.3342228 -122.8920000 1019.9657483
-302.4294935 -131.4070000 1017.6486375
-272.7793733 -622.7270000 1003.4039339
-272.1719838 -622.4320000 1013.5860851
-268.0946153 -627.1520000 1005.6360342
-267.0153630 -627.2360000 1015.4863700
-285.2638500 -598.9970000 1003.6660897
-284.7771356 -598.0980000 1011.7658177
-283.6769399 -603.9700000 1005.4040498
-282.9093809 -604.7050000 1013.2286373
-281.3153275 -610.4280000 1003.1549231
-279.7414458 -611.9480000 1014.2340785
-276.6476388 -618.0770000 1003.7864817
-275.9323557 -618.1120000 1011.9702115
-285.8485335 -591.7760000 1013.7274180
-260.5084871 -631.2610000 1005.4083957
-260.0263037 -631.3930000 1015.0282761
-251.1606892 -632.9480000 1005.5015515
-250.7719059 -632.7520000 1014.7997529
-240.5683613 -633.1190000 1006.6065814
-239.9187484 -632.4520000 1015.2292320
-230.0233797 -631.8200000 1015.9820446
-228.8502102 -632.7970000 1003.7206518
-222.1759861 -631.3550000 1016.4290686
-221.1607760 -632.0480000 1007.3153984
-212.5723364 -630.8890000 1016.8767436
-209.6675301 -631.4930000 1006.8859178
-207.4049571 -630.5780000 1018.4471660
-205.5453321 -630.8820000 1013.0988063
-201.0035868 -630.8020000 1011.7778695
-200.8393952 -631.0780000 1007.7001140
-200.6915247 -630.3800000 1017.5641971
-191.5734812 -629.9320000 1018.4434628
-190.2671149 -630.6660000 1008.2347072
-185.8871430 -630.8730000 1003.0603601
-179.4096553 -629.1470000 1020.9661350
-178.9407929 -630.1970000 1008.3723997
-172.2080820 -628.9710000 1018.7614840
-171.2314044 -629.6990000 1009.9071808
-160.9221413 -629.2930000 1008.6069043
-160.1619023 -628.3950000 1018.7417158
-157.8029111 -629.9070000 1000.5991227
-150.2929104 -628.5540000 1010.4626926
-149.4340536 -629.3910000 1000.8522180
-149.4334727 -627.6630000 1022.0194520
-140.2220604 -627.3900000 1020.2999514
-138.8592376 -627.9260000 1010.9823168
-130.1349890 -627.4500000 1012.3047774
-130.1155053 -626.9970000 1020.3563437
-129.1025010 -628.0830000 1002.2012579
-121.0469567 -626.5670000 1022.2949069
-120.3477377 -627.0990000 1011.7455033
-119.9696191 -627.7090000 1001.4855397
-110.7198079 -626.7370000 1011.8335472
-110.0287803 -626.1880000 1022.0371614
-105.5393520 -626.3200000 1016.2646335
-102.0290395 -625.8260000 1023.4969984
-98.9846182 -626.2110000 1013.7586477
-98.2508742 -626.6580000 1004.4400341
-90.6779668 -625.9450000 1013.1635281
-90.0099991 -625.4200000 1023.0666941
-87.7926448 -626.2980000 1004.0654983
-80.4632444 -625.5970000 1012.8617537
-80.1080895 -625.0390000 1023.6395935
-79.6269016 -626.0870000 1002.3637510
-70.3001482 -624.7550000 1022.3705724
-69.2853380 -625.6760000 1003.2983785
-67.4695344 -625.1370000 1012.8485232
-59.7245184 -624.2680000 1024.5754784
-58.7075350 -624.7790000 1013.7615802
-57.8107461 -625.2830000 1003.2156251
-49.9131302 -624.8900000 1005.4437969
-49.3383157 -624.3560000 1015.5153627
-40.1177565 -624.5620000 1004.8546600
-39.6041471 -624.0570000 1014.6051088
-30.5186277 -623.6880000 1015.3937931
-30.6625364 -623.1950000 1025.2827876
-29.2777022 -624.1060000 1004.8888502
-22.2955659 -623.3520000 1015.8573759
-22.1574137 -622.8870000 1025.2812223
-18.4934079 -623.5180000 1007.2924282
-13.7312127 -622.9380000 1016.7369784
-11.3608946 -622.4710000 1025.2196381
-9.9425608 -623.0490000 1006.3215132
-7.4356002 -622.6740000 1015.6566875
-4.6643966 -622.7530000 1003.9802733
-0.8931118 -622.3460000 1014.8807515
0.9980277 -622.3310000 1007.4026174
7.9090675 -621.7540000 1017.9448373
10.3084563 -621.6830000 1008.3852565
18.6278686 -621.1050000 1018.0919286
20.8911065 -620.9580000 1009.4001038
29.8515673 -620.3650000 1009.0164269
30.6112902 -620.2960000 1018.7911747
40.9777890 -619.6970000 1009.0206069
41.6844373 -619.5270000 1020.2946567
49.4895693 -619.0430000 1018.6706277
51.1076792 -619.0970000 1011.6077919
60.7901057 -618.4920000 1019.5979905
61.4076577 -618.9730000 1007.8369770
67.4270616 -618.0140000 1027.3249982
70.9377989 -618.7650000 1011.1838106
71.3799964 -618.2920000 1019.3127661
73.4951483 -618.0440000 1023.7803611
79.6435928 -618.8660000 1011.2257541
80.1219307 -618.1660000 1022.0457502
83.7703778 -618.5440000 1016.6085963
90.2644011 -618.9960000 1007.3185177
90.3771808 -617.9080000 1023.0548827
93.3775430 -618.3050000 1014.0758787
102.9565578 -616.0290000 1011.9927382
103.1214224 -614.5490000 1021.2270220
108.9215640 -612.4400000 1005.2488148
108.9972987 -610.5580000 1013.4583869
110.4621465 -605.5250000 1023.9655523
112.7143394 -605.3750000 1014.2333763
116.5578225 -598.0780000 1015.2706123
115.7854629 -595.3680000 1024.1084788
118.1246865 -594.8230000 1013.6877167
118.6420504 -586.1980000 1022.4380787
119.6148355 -576.1390000 1024.8654259
120.3014968 -586.8440000 1013.5456857
121.5387620 -575.3600000 1015.3175488
122.2811746 -583.1190000 1007.2212726
120.2462956 -556.7520000 1025.0164694
120.3987422 -565.7340000 1023.7889430
120.3999019 -548.1100000 1024.0089967
122.2209925 -555.6350000 1015.5394892
122.2868486 -566.3080000 1014.2304392
124.1048006 -555.5710000 1006.1699391
119.5279599 -545.5120000 1027.8943710
119.9332374 -536.4510000 1025.9911542
120.1755463 -526.4920000 1025.3452847
121.2593693 -531.3830000 1020.0934001
121.7091783 -544.9300000 1017.9309210
122.3435741 -535.8750000 1014.9915451
122.5646317 -525.9890000 1014.2452894
124.1798990 -535.5310000 1006.2222578
124.2680320 -545.8800000 1005.6997163
120.1381915 -516.5740000 1026.2247667
120.5237624 -506.1770000 1025.2213430
122.0810384 -515.5350000 1017.1972991
122.6156453 -507.0270000 1015.2763367
122.7110532 -516.7500000 1014.1078239
123.9108406 -515.2510000 1008.4579025
124.6024625 -506.2140000 1005.7925671
120.3904109 -476.5980000 1026.9592804
120.5398578 -495.3640000 1025.7317017
122.5918447 -485.1390000 1016.2960767
122.8912982 -493.8260000 1014.6110462
123.9906752 -493.3990000 1009.4994545
124.2917826 -486.2800000 1008.4645519
124.6803464 -494.6290000 1006.2009885
120.4678608 -466.0950000 1027.2206719
120.5013826 -456.5030000 1027.8213484
122.2370359 -474.2160000 1018.2301790
122.5002144 -464.9930000 1017.5346661
122.8089895 -454.4810000 1016.9199614
124.3842775 -474.3140000 1008.6661969
124.6714573 -463.6070000 1008.0281117
125.0427010 -456.1080000 1006.8714146
120.9887161 -435.0730000 1026.8897117
122.4574674 -446.9040000 1019.1241622
122.4911964 -434.4830000 1019.8848667
124.6146747 -445.7190000 1009.3903281
124.9246715 -434.2130000 1008.7056341
120.9109418 -416.2960000 1028.3085704
122.9262214 -415.4250000 1019.1423459
123.0859899 -404.8470000 1018.9851102
123.3132765 -425.6160000 1016.6787257
124.7554887 -405.6660000 1011.2930755
124.9233732 -424.1930000 1009.2957013
125.0310877 -414.8500000 1009.4276012
122.8507958 -395.9480000 1020.5412426
123.1669336 -385.6080000 1019.6766282
125.0707065 -395.4430000 1010.5384619
125.4530560 -385.6980000 1009.6049926
121.6114321 -370.4120000 1027.1406178
121.7446303 -375.7310000 1026.4428361
123.0533685 -376.0980000 1020.6247907
123.2119773 -365.5530000 1020.2475013
123.4280031 -355.8110000 1019.3311319
125.3576008 -365.6710000 1010.8335138
125.6160459 -376.5400000 1009.3778026
125.6420745 -355.4940000 1009.5482828
122.5740111 -351.4230000 1023.2768286
122.6872777 -343.5850000 1022.9187509
123.1733976 -333.4670000 1020.5668766
123.4263997 -347.4320000 1019.2510917
123.8731292 -337.0130000 1016.9785421
125.1259885 -334.0870000 1011.4395639
125.2775184 -344.4560000 1010.9521342
122.9460750 -324.8060000 1022.0731387
123.0528189 -306.7670000 1021.7449517
123.0998737 -315.3110000 1021.4557288
124.5307760 -326.9220000 1014.1395872
124.9012366 -315.2740000 1012.8558572
125.2340700 -305.6990000 1011.9515282
126.0944349 -325.4100000 1007.8699220
123.1109373 -296.7760000 1021.7959737
123.7420598 -286.2420000 1021.1068834
125.5955532 -295.5330000 1011.6977983
126.0194626 -285.4960000 1012.7953637
124.5673290 -274.7680000 1023.7916952
126.7505537 -275.6630000 1015.0884722
126.7286228 -265.6690000 1021.5590750
128.2607508 -272.6550000 1011.8243317
128.3398972 -267.1720000 1014.7961656
129.9807547 -264.2670000 1011.0942387
127.5338119 -255.3120000 1023.5034236
128.2513894 -235.3900000 1024.3360739
128.4120532 -245.2020000 1022.4085843
130.1047996 -255.2200000 1014.1868746
130.9211483 -246.3910000 1013.6010326
131.1116316 -237.1360000 1014.4344839
128.2828643 -225.9330000 1024.9967238
128.9875497 -207.3880000 1024.8489998
129.2412140 -217.2200000 1022.6930985
130.1905552 -227.1960000 1018.4990280
129.6702239 -195.7160000 1024.9309266
130.7580875 -184.8410000 1024.4898452
135.1595920 -237.1810000 1005.5907836
132.6488166 -225.0960000 1012.6610414
132.8541263 -214.5330000 1014.1348490
137.9660405 -216.0580000 1006.2198587
138.2228413 -207.7630000 1007.7805782
131.7700455 -202.5250000 1018.6566179
132.3540577 -191.5340000 1019.8069855
133.7113775 -205.8170000 1014.2998352
136.0849752 -185.9470000 1015.6614676
136.2751696 -196.3470000 1012.8443579
141.0933461 -197.4490000 1007.3756138
149.5403017 -185.7790000 1005.9048095
131.7397766 -165.6920000 1027.0373660
131.8274809 -175.2950000 1024.6485329
135.8027462 -166.5900000 1021.2873989
139.9925659 -175.9380000 1014.8595423
140.6819685 -165.1950000 1017.8220253
147.1261430 -173.1420000 1011.3935125
149.1793018 -165.9290000 1013.5796781
150.0764827 -177.5530000 1008.4775589
133.1032705 -157.0940000 1027.6512558
137.1959730 -156.0920000 1023.2920194
139.9489566 -146.0210000 1024.5202526
140.3395107 -137.2090000 1026.4973699
141.9213639 -155.5480000 1020.2740292
147.2130682 -156.9020000 1017.8160078
148.7584969 -148.3170000 1020.3833702
150.4937761 -136.3240000 1024.1642309
142.1883662 -126.5930000 1028.4699373
148.1872745 -117.3160000 1027.9545542
149.8667543 -127.1890000 1025.9935665
-287.3793679 -572.1220000 1024.9924169
-286.4316216 -582.0250000 1025.3590132
-288.0340284 -551.6890000 1025.3110401
-287.6631516 -562.0630000 1027.7278809
-286.9776127 -550.5530000 1035.3810108
-286.8163568 -570.2760000 1034.3936747
-286.7706343 -560.3940000 1037.2749115
-288.0947646 -530.8190000 1025.4099951
-287.8835357 -542.2990000 1026.7738893
-287.3183829 -531.4940000 1035.9951570
-287.0651230 -538.3590000 1035.4094878
-288.9854364 -506.3880000 1025.7845078
-288.9836453 -500.5000000 1028.3749336
-288.7511197 -511.7850000 1026.3986907
-288.4065833 -518.5460000 1026.7147519
-288.4782290 -502.9020000 1037.6951739
-288.4051848 -510.7080000 1036.1462127
-287.9270324 -520.0400000 1036.7146442
-289.3083839 -479.6070000 1026.4089667
-289.1183802 -490.2570000 1026.5823091
-288.6451090 -480.4180000 1037.5722427
-288.5887278 -490.7370000 1036.2330227
-288.4169625 -493.6710000 1038.8264154
-289.9799619 -452.1380000 1026.8373113
-289.9016313 -459.8760000 1025.5584836
-289.4654480 -470.9750000 1027.7864354
-289.5422774 -450.7430000 1036.8864805
-289.2008171 -463.0230000 1037.7225671
-288.8738669 -471.7530000 1037.7282741
-290.2070985 -431.9930000 1027.4734441
-290.0491845 -441.2060000 1027.7662447
-289.5894561 -441.2090000 1037.7557895
-289.6043380 -430.1410000 1038.6656684
-290.4201101 -410.8290000 1028.1598311
-290.3345994 -420.0810000 1028.1313191
-289.7204475 -409.9360000 1038.6136340
-289.6012225 -419.9320000 1039.5758614
-290.9214812 -392.5430000 1021.5300712
-290.4571484 -399.0370000 1028.8492897
-290.4606536 -388.7310000 1029.2792940
-290.3422473 -380.8700000 1031.4916974
-289.7754685 -390.5510000 1039.0727437
-289.7796717 -377.5830000 1039.5427419
-289.7386959 -399.1230000 1039.1433962
-290.6498452 -376.6550000 1026.5955834
-290.5039015 -367.2740000 1029.1785239
-290.3906396 -359.4140000 1030.9407690
-290.3610699 -374.7210000 1031.4813674
-289.9144865 -356.1080000 1037.6400993
-289.8443960 -371.8370000 1038.7814964
-289.6426680 -360.8790000 1041.2053862
-290.4601919 -351.4770000 1029.5393417
-290.3460282 -338.4980000 1030.7915248
-290.2349292 -329.3730000 1031.7036027
-289.8182108 -350.7240000 1038.5419169
-289.6583085 -342.8280000 1039.6948832
-289.5262160 -331.7450000 1039.9772315
-290.8494382 -310.6900000 1022.7315115
-290.2829138 -321.0710000 1030.2125381
-289.8790421 -311.1780000 1032.6299548
-289.3078022 -320.9360000 1040.4711186
-288.8278948 -310.1770000 1042.8298534
-290.1945673 -288.3800000 1023.2030124
-289.9365626 -280.1860000 1022.5174108
-289.8313937 -300.9560000 1030.5304667
-289.2089843 -289.4050000 1032.8616843
-288.6919694 -300.7860000 1041.6320432
-288.3837651 -288.9640000 1041.1073422
-288.0090228 -280.2750000 1042.2140509
-289.4288471 -269.0260000 1022.3662486
-288.9269203 -258.8290000 1023.0051057
-288.7994724 -279.6290000 1033.4089146
-288.4652574 -269.2030000 1032.6546325
-288.1650193 -259.4930000 1032.2998184
-287.6408864 -268.6110000 1042.6105361
-287.5634790 -260.3900000 1040.8116131
-288.7130181 -250.0900000 1022.6687876
-288.6276201 -239.1720000 1022.3602310
-287.9650205 -250.2400000 1031.8432393
-287.7526612 -242.1380000 1033.8872568
-287.2265318 -249.7900000 1043.5679134
-288.3720162 -228.5860000 1023.8749226
-288.2607900 -211.0630000 1024.8370103
-288.0936995 -221.2740000 1025.7500655
-287.6895142 -230.1790000 1033.4782966
-287.6714110 -220.7560000 1032.4984633
-287.5741288 -208.8310000 1034.6604904
-287.3305779 -221.0990000 1043.8561415
-287.2262740 -229.8580000 1044.2980291
-289.1981547 -188.7050000 1021.8701992
-288.5501929 -201.1010000 1024.3418841
-288.3928512 -190.6670000 1027.4751073
-287.7449495 -199.9090000 1033.6173503
-287.6963646 -190.7390000 1034.5583415
-287.0919014 -188.1500000 1043.5902665
-290.7945166 -160.0390000 1024.5127413
-289.6875906 -171.3350000 1024.4120445
-288.9009730 -179.7030000 1025.8159867
-288.1133616 -169.6260000 1032.0906881
-288.1073314 -159.8010000 1035.0112381
-287.6481321 -180.5590000 1034.8892337
-287.4408014 -168.9260000 1037.3932335
-293.1398982 -138.5090000 1025.8320097
-291.2633080 -149.8210000 1026.4448540
-289.0282318 -140.2900000 1036.3153648
-288.5794340 -149.7800000 1035.0129991
-304.3583038 -118.1900000 1021.9756342
-303.8505311 -112.7220000 1023.6547518
-298.1108685 -118.4290000 1026.2453173
-297.6339398 -127.8020000 1023.5032232
-292.0363743 -129.1670000 1030.6820075
-291.2719714 -111.2910000 1038.9166024
-291.0550976 -120.9060000 1036.2899873
-289.8742954 -131.5690000 1035.9105373
-287.9832387 -130.9140000 1044.1747995
-302.3269193 -85.9014000 1030.2223427
-302.1522690 -90.2001000 1029.1552283
-301.4300805 -97.0211000 1028.5777443
-299.7030777 -107.9240000 1027.8477734
-296.1882357 -89.8240000 1036.3104048
-295.6273017 -100.7433000 1033.9698379
-294.3332737 -104.5910000 1034.5525106
-292.0672320 -104.4060000 1038.7526982
-302.5015696 -81.6027000 1031.2894572
-302.2405848 -76.6359000 1032.9542656
-301.8482822 -69.1857000 1035.4614941
-297.6440121 -68.6479000 1039.6655090
-297.1692868 -79.5895000 1037.3934480
-293.7484796 -79.0885000 1042.5339323
-301.8722814 -53.8349000 1040.9619130
-301.5608804 -59.7603000 1038.7070042
-298.9092564 -60.9165000 1041.0436373
-272.0873955 -621.5190000 1025.2993454
-271.8573933 -620.7820000 1044.4962833
-271.4893065 -621.4620000 1035.4413282
-264.8444833 -626.9160000 1037.4576034
-262.0698572 -628.5320000 1034.6956066
-283.9179827 -596.1910000 1032.5639796
-283.4649056 -600.3000000 1024.1406040
-282.8489299 -599.5490000 1037.3833712
-281.4695833 -603.2130000 1043.6784029
-279.1047410 -611.7880000 1024.8568084
-278.8691090 -611.0030000 1034.1623381
-278.2512448 -610.9770000 1044.3746767
-286.1010840 -579.8040000 1034.5561827
-285.4313255 -590.6010000 1023.1161292
-285.3690366 -581.3630000 1043.6703468
-285.0722554 -588.7540000 1034.8041760
-261.2725552 -629.7810000 1024.6579927
-251.6321387 -631.0170000 1036.1779957
-248.7771062 -631.9930000 1025.4861945
-241.9442124 -631.7970000 1025.2654113
-241.4807097 -631.0530000 1034.6949367
-240.4529732 -630.3670000 1044.5743779
-232.2091943 -631.0710000 1027.1255941
-230.2228943 -630.3130000 1036.1216300
-223.4345513 -629.8160000 1038.5104667
-222.0480326 -630.6070000 1026.4028208
-218.1462660 -630.0540000 1031.7217261
-212.0498045 -629.4490000 1036.6188699
-210.6502925 -630.1120000 1026.6317736
-203.4120450 -628.9070000 1038.9999822
-202.5463930 -629.6640000 1028.0834273
-192.9966742 -628.5550000 1037.1214694
-190.7250405 -629.1800000 1027.2496113
-183.5054397 -628.1660000 1036.8470725
-182.3573591 -628.7200000 1028.0857749
-171.8308108 -628.1000000 1029.9797769
-171.9804626 -627.5100000 1040.5587764
-161.1192982 -627.1560000 1039.4981683
-159.8129498 -627.6820000 1028.8893514
-151.4844134 -626.7810000 1040.2764387
-148.8778795 -627.0180000 1033.2208544
-142.9922028 -626.3600000 1042.7450242
-140.6271415 -626.9090000 1029.3542608
-135.5584610 -626.1970000 1040.0743542
-132.6348434 -626.5410000 1030.9539893
-129.5013591 -625.9000000 1041.8403341
-125.3248230 -626.2060000 1032.3917857
-122.0583656 -625.6260000 1042.0202597
-120.0807605 -625.9760000 1033.2934445
-112.8014299 -625.3280000 1041.5317411
-111.5485758 -625.7400000 1031.9821520
-101.1184541 -624.8340000 1043.5259409
-100.7410295 -625.3270000 1032.5608578
-92.1863996 -624.8690000 1035.6706303
-90.3274553 -624.3530000 1045.7746122
-82.4033684 -624.6530000 1032.9809581
-81.4828757 -624.1460000 1043.1885776
-70.7251782 -623.7420000 1043.6263920
-70.0393323 -624.1540000 1034.1869239
-61.2949607 -623.3480000 1044.9911798
-58.8145400 -623.6080000 1037.2132845
-52.8023744 -623.5170000 1034.6778251
-50.9895048 -622.9840000 1044.6309800
-48.0797090 -623.8040000 1025.5188520
-41.9262769 -623.0840000 1035.5177671
-40.2682046 -623.4970000 1026.0852678
-40.5021592 -622.5550000 1045.7741835
-32.3890487 -622.3330000 1044.1655318
-31.5881403 -622.1110000 1048.7502078
-30.9724156 -622.7590000 1034.1487298
-26.0420057 -622.3200000 1039.4855902
-23.3962629 -622.6140000 1031.6505714
-22.8158042 -621.9120000 1046.0628969
-18.8287151 -622.2580000 1035.4808695
-15.3928207 -622.4390000 1029.2598867
-10.9933928 -621.4540000 1047.0993843
-10.1557830 -621.9850000 1034.5920977
-1.1273362 -621.9530000 1027.3385611
-0.6087242 -621.4960000 1037.6091764
-0.0574009 -621.0970000 1046.3501296
8.3685475 -621.1230000 1038.3259605
9.6674781 -621.4350000 1028.2770995
9.8249566 -620.6850000 1047.9228400
17.9389357 -620.7400000 1038.3829955
19.1846409 -620.9870000 1027.1630272
17.7388242 -620.3660000 1049.1311401
27.9156845 -620.2450000 1039.5272881
29.4980024 -619.9200000 1048.6562937
30.2610178 -620.2790000 1029.8967530
39.2650162 -619.6040000 1038.8452573
40.2578410 -619.6060000 1028.8710654
41.5719210 -619.3220000 1049.5971560
48.9608973 -618.9780000 1039.1945270
49.7108332 -618.9550000 1030.3062615
50.3536576 -618.8420000 1050.2905240
57.1496159 -618.4250000 1041.9178546
60.2371148 -618.2870000 1031.2701172
63.2067345 -618.0300000 1039.6032134
68.4402538 -617.8720000 1032.2734345
70.7481877 -617.5590000 1049.7963824
71.5713085 -617.5490000 1041.3794659
79.3572277 -617.6550000 1031.6138615
80.2007384 -617.1310000 1043.6304130
89.3522701 -617.3310000 1032.6784612
91.2725838 -616.4450000 1041.7533575
100.2285523 -614.4310000 1031.5081003
100.2388096 -612.7720000 1040.6096655
102.9027958 -609.2150000 1045.4869013
104.8395901 -609.9320000 1034.7090615
107.1484948 -604.7990000 1041.5704025
107.0614472 -601.8340000 1050.2302022
109.4050227 -604.0800000 1033.1885077
110.8942046 -596.3310000 1044.5362258
114.0174181 -594.6090000 1033.7790950
114.4844178 -585.4130000 1044.2688430
115.8524493 -576.6110000 1044.6227723
116.0748128 -586.1860000 1035.6652888
117.5913812 -574.9210000 1036.7919282
117.7062899 -581.6440000 1031.8131753
118.3848587 -573.8430000 1032.8751797
116.4362984 -566.0500000 1044.9230076
116.6276150 -556.0470000 1044.2762480
118.0479446 -566.1090000 1036.4198396
118.6424084 -556.0060000 1033.1897225
119.0884219 -565.9480000 1030.5571055
119.4182198 -552.6340000 1028.8526017
115.9166419 -537.7500000 1046.9042401
116.1087333 -527.3440000 1045.6974087
116.2967340 -544.5610000 1045.2406202
117.8461172 -536.7900000 1036.2362893
117.9944584 -525.5540000 1035.9888405
118.2783906 -547.2940000 1034.3335437
115.8158385 -506.5550000 1048.1526710
116.5998378 -516.9240000 1043.5756565
118.1928279 -505.4730000 1036.5423869
118.3766954 -515.9960000 1034.7753267
116.3923916 -495.0270000 1046.2924499
116.3786369 -485.4670000 1047.2523560
116.6301042 -474.6460000 1046.8266799
118.2775345 -485.7200000 1037.5340162
118.3503276 -495.3650000 1036.5151315
118.5622953 -477.0030000 1036.5188314
119.8174168 -486.1570000 1029.5896809
116.3554431 -456.8520000 1048.9822147
116.6272499 -467.5020000 1047.2766986
118.3797474 -456.6330000 1038.7259816
118.6751835 -465.4900000 1036.6408201
115.9642908 -432.7190000 1050.9356857
116.6505661 -435.8930000 1047.7171726
116.7281872 -445.5900000 1047.3384696
118.4248384 -426.9990000 1039.2368464
118.4919521 -445.4840000 1038.6579295
119.0559003 -436.9690000 1036.0873802
120.4154496 -446.2270000 1029.0200313
116.2634278 -425.6420000 1049.4406787
116.2871404 -406.7780000 1049.8011474
116.4204479 -418.0520000 1048.7533143
117.5416470 -414.8800000 1043.6521050
117.8095083 -404.1430000 1043.1467029
118.6420712 -418.3900000 1038.4805224
119.0526529 -408.5370000 1037.2475003
120.4738258 -425.5350000 1029.8011690
120.5456289 -405.8050000 1030.6725549
116.6568083 -397.6410000 1048.6774278
116.7924532 -387.7370000 1048.4697635
118.2745874 -397.5110000 1041.4845665
119.1666862 -384.5540000 1037.8195775
119.5280502 -393.9960000 1036.0256110
120.8023320 -398.3050000 1029.9469245
121.1354346 -386.2290000 1028.9125804
116.2936843 -377.0010000 1050.8014139
116.7135158 -355.9190000 1049.0384725
116.7493651 -365.7110000 1048.5890297
118.2250420 -376.8230000 1041.9737763
118.8556456 -367.4680000 1039.1943585
118.8487445 -356.8750000 1039.7043158
120.4252428 -374.4660000 1032.2406927
120.9038109 -364.5720000 1030.3787613
121.0774647 -356.3520000 1029.9417254
118.7031078 -346.0660000 1041.1719976
119.3148448 -335.5800000 1039.0723541
120.7993897 -347.2820000 1031.7771519
121.3365671 -336.3080000 1029.7662206
116.5761030 -316.3880000 1051.0663832
116.6502662 -324.0080000 1051.0576762
118.3470121 -317.7940000 1042.8360363
118.4965030 -307.3550000 1040.9183532
118.4664229 -327.0160000 1042.9281343
120.7517314 -315.7090000 1031.9863520
120.7930922 -325.9590000 1032.3671318
121.1505155 -305.6190000 1029.6529563
116.7278074 -294.4070000 1050.5689550
116.9490788 -286.6050000 1051.2429194
118.5221826 -295.8910000 1041.1088304
118.6083213 -287.0830000 1042.8205944
120.5098808 -296.5250000 1032.2621731
121.1307356 -286.7540000 1031.7029233
120.0504948 -276.1750000 1042.1356595
121.3308120 -266.8490000 1042.9881339
122.2370222 -278.7330000 1030.7220813
122.5743681 -256.2130000 1042.9098251
124.0768758 -265.3490000 1032.0643956
122.8683626 -245.8600000 1044.3451746
122.8451362 -236.8560000 1045.9050068
125.3802808 -254.3210000 1032.1671588
125.5215351 -247.1370000 1033.2997966
125.6890219 -236.1220000 1034.1328465
123.4884280 -226.2460000 1044.5760314
124.0543352 -214.8820000 1043.3257174
125.8517133 -225.7110000 1034.4957411
126.2793577 -214.1340000 1033.6030686
123.7236353 -207.1350000 1045.5402832
124.4538633 -195.3430000 1043.6427384
124.7210770 -185.2140000 1043.7474179
126.1777615 -205.3580000 1035.0115100
126.8002963 -193.9490000 1034.0122225
127.0923824 -183.9020000 1034.6974245
123.1354709 -166.6220000 1051.5609353
124.2625745 -175.8440000 1046.5798473
125.1217648 -165.6370000 1044.2844926
126.7969316 -174.1940000 1037.0126208
127.6584154 -164.8430000 1036.2475392
124.0114760 -141.1900000 1050.7661026
124.3215854 -136.7210000 1050.3614531
124.8368035 -156.6500000 1046.3998416
125.7628124 -145.4450000 1044.7457507
126.0541677 -135.9680000 1045.3009201
129.1483710 -154.7610000 1034.7733180
129.5015457 -145.6310000 1035.9696640
130.7469595 -134.9080000 1036.0714149
124.9531074 -125.2980000 1050.2224535
126.3649657 -112.0060000 1049.0969224
127.2059857 -127.7610000 1044.0608332
127.9555910 -116.0690000 1045.0640685
125.9036022 -107.3250000 1051.1191785
128.8812494 -105.1690000 1046.1803934
130.3531231 -96.4356000 1046.7161628
133.6667329 -146.6070000 1029.2913394
134.2069770 -136.5400000 1031.0010283
131.4689508 -125.5280000 1037.2241910
133.5659625 -117.3050000 1036.8407305
137.8693084 -112.9990000 1034.1654268
143.1098313 -110.7810000 1031.9465486
143.8657356 -117.1280000 1029.6093849
133.9369518 -106.8000000 1039.5376159
136.1574930 -96.6931000 1040.7865599
138.0664633 -87.7017000 1042.1800883
142.7173012 -87.1169000 1040.5110024
143.5143392 -104.3100000 1034.6140145
144.6377376 -96.2819000 1037.2940286
147.8398237 -107.5600000 1031.7590698
132.4066244 -85.2343000 1047.6221393
134.1814406 -74.9120000 1049.0233275
134.3894988 -66.9826000 1051.0272639
140.0477897 -78.8955000 1043.9549375
142.4863695 -65.9060000 1046.8079311
144.3074033 -77.4179000 1042.6390776
138.1200904 -57.7255000 1051.3124151
143.3933098 -54.2506000 1049.6841975
-287.8629240 -499.5040000 1047.1373505
-287.7076818 -510.7750000 1046.3799445
-287.2673524 -521.2720000 1046.3076183
-286.9783549 -501.7340000 1057.2543292
-288.1441716 -480.0690000 1046.2323042
-287.9671952 -490.5800000 1046.8654893
-287.8625730 -482.1450000 1050.4978684
-287.5242244 -480.6870000 1057.1847919
-287.3127510 -491.5110000 1056.7584177
-288.7370959 -460.1310000 1046.4519897
-288.7099889 -453.5570000 1049.4829244
-288.2619398 -471.6710000 1047.6504649
-288.0277220 -462.0120000 1056.6359211
-287.8753668 -468.7600000 1056.1585073
-287.9232706 -450.6940000 1067.0393285
-287.6329075 -471.6610000 1059.9733198
-287.7421889 -462.4080000 1066.6924360
-287.3998479 -471.8410000 1065.9883034
-289.0176355 -442.5530000 1047.3972376
-288.9615102 -431.5320000 1048.7084168
-288.4102966 -441.7230000 1057.0093011
-288.3700076 -450.2310000 1055.7898185
-288.2678647 -433.3330000 1058.7620538
-288.9956322 -401.7800000 1048.6578136
-288.9422260 -421.1520000 1048.9787945
-288.8117123 -410.6000000 1050.8413560
-288.1556093 -421.0160000 1059.2640894
-288.0803956 -409.9110000 1059.8254876
-288.9498724 -381.1160000 1049.5887540
-288.8139012 -392.5830000 1051.0813544
-288.1170442 -400.8990000 1059.1747488
-288.0402745 -389.7000000 1059.8761955
-287.9782660 -378.6430000 1060.2773388
-288.8997348 -369.4750000 1050.0396977
-288.8219506 -360.9300000 1050.5111270
-287.9210348 -371.0860000 1060.6083880
-287.9104035 -361.6350000 1060.2285157
-289.2599756 -351.1550000 1045.1226617
-289.0489065 -340.1270000 1046.2665196
-288.8771219 -329.4530000 1046.5095547
-288.6353215 -350.6470000 1051.7945796
-288.4191406 -342.5920000 1053.2185694
-288.3314591 -331.8310000 1052.5499978
-287.7530898 -351.3050000 1061.0713896
-287.6537085 -341.1060000 1060.9931121
-287.4441189 -329.3500000 1061.4768436
-288.4373176 -320.2780000 1049.2176428
-287.9496657 -308.4880000 1051.4764975
-287.9665227 -319.9080000 1054.0465948
-287.6748443 -313.6000000 1055.6719328
-287.3988632 -319.6640000 1060.0874218
-287.0403010 -313.2290000 1062.6940766
-287.8594316 -300.6170000 1050.3178959
-287.3814898 -281.9260000 1050.0962033
-287.3987903 -291.3940000 1052.8063142
-286.9618749 -270.8010000 1052.4138796
-287.1479988 -239.8100000 1044.5694366
-287.2218896 -208.5610000 1045.0782245
-286.9897368 -211.3880000 1053.7235928
-286.9769899 -220.8820000 1054.2538961
-287.1296166 -199.2470000 1045.3498762
-287.0701020 -160.4980000 1045.3209105
-286.9830239 -171.0080000 1044.5723162
-286.9018372 -179.6930000 1046.2239847
-287.3641012 -141.0510000 1046.0058838
-287.2112257 -149.6880000 1044.8683786
-286.9777830 -153.1470000 1048.2829728
-288.1410448 -121.6530000 1046.2823664
-286.9750408 -128.8480000 1053.6838433
-286.9449196 -120.8660000 1056.4847955
-290.2012480 -89.9763000 1047.5366019
-289.9837055 -100.9921000 1045.3300625
-288.5360367 -109.5910000 1048.4558039
-288.0913306 -88.1673000 1056.7848336
-287.7927611 -98.9944000 1056.0099263
-287.1219919 -109.7190000 1058.7220460
-294.0340591 -69.0823000 1044.7992932
-291.5688585 -71.5655000 1048.7629206
-290.7699003 -80.2199000 1048.8868832
-288.8735719 -69.2011000 1057.6513136
-288.4892014 -78.0051000 1057.7480365
-287.2106956 -70.5226000 1067.2417955
-302.3638210 -38.2189000 1047.8643857
-301.7256836 -47.1869000 1044.1949638
-296.9999087 -41.6875000 1050.8384518
-296.1734475 -52.0922000 1047.7824101
-294.5423502 -60.0106000 1047.1607820
-292.4440426 -39.4293000 1057.8190258
-291.9333588 -50.6162000 1054.7474707
-289.9787753 -50.7016000 1059.3722872
-289.5087769 -61.2611000 1057.6002200
-288.0522330 -49.3394000 1067.4371384
-287.5327411 -59.7165000 1067.3561924
-302.7540402 -20.5925000 1052.2282401
-302.0167628 -28.9358000 1050.9009052
-299.1335572 -15.8195000 1055.8419766
-295.3377665 -19.4421000 1059.6688051
-294.4633533 -29.9957000 1057.9338015
-290.6372063 -21.8985000 1067.0119596
-303.1691478 0.1939900 1058.9920256
-302.7613939 8.8414000 1063.2497904
-301.6312714 -10.8159800 1055.9183971
-298.1980924 -0.3066600 1062.6993471
-296.4229909 -10.2689000 1060.9900666
-301.0193443 12.0395000 1065.8405879
-271.3368193 -620.7530000 1054.0368216
-264.5652723 -626.5590000 1046.4438450
-263.0488103 -626.0490000 1063.5629182
-280.8068498 -602.5600000 1054.4716130
-280.4324968 -602.1970000 1063.0494528
-277.5252404 -610.9080000 1054.1788404
-277.4897899 -609.0460000 1065.4411744
-275.7717511 -615.3070000 1047.1183677
-275.1751367 -615.1930000 1054.4799012
-274.7652148 -614.2550000 1063.5984441
-270.8866571 -619.6240000 1064.7463091
-284.9561870 -580.3450000 1051.1886971
-284.9638935 -572.3970000 1055.4692145
-284.6568424 -581.2350000 1055.9846518
-284.4956754 -574.5540000 1065.2588771
-284.0473373 -591.6340000 1045.9337584
-284.2488941 -581.5210000 1064.0129943
-283.6899783 -590.5850000 1055.1413975
-282.5517936 -593.3210000 1065.9129021
-285.9502579 -561.5570000 1045.1104224
-285.8792328 -551.1490000 1045.9117840
-285.7744885 -570.4440000 1045.5835621
-284.9826362 -561.4050000 1055.5689026
-284.9974854 -550.2250000 1056.6488079
-284.4965806 -567.4790000 1065.1388430
-284.4812665 -552.4870000 1064.9490814
-284.4128332 -560.2380000 1064.8102546
-286.6365431 -530.7860000 1046.4386474
-286.2118396 -540.8200000 1044.6257834
-285.9656496 -531.5480000 1054.7016146
-285.3792413 -541.3320000 1055.7720118
-285.3078388 -531.9270000 1064.9746596
-284.7862394 -541.6530000 1067.2941160
-286.8792200 -509.7610000 1055.5858052
-286.3718323 -520.9000000 1056.4847973
-286.2516851 -501.7370000 1066.8484726
-285.8522076 -512.3010000 1066.5954059
-285.5971046 -521.6800000 1066.4198313
-286.8821274 -484.8050000 1067.0975078
-286.6030899 -492.8220000 1067.2123952
-286.7456869 -292.1740000 1061.2289952
-286.7525454 -302.7260000 1063.7992670
-286.5304179 -281.4020000 1061.2727588
-286.3739210 -294.1330000 1066.7463237
-286.2348655 -284.0650000 1066.2286717
-286.8259609 -261.1410000 1052.0762002
-286.2249455 -270.3570000 1063.3684092
-286.1576247 -260.3660000 1062.9495203
-286.6673748 -251.3360000 1053.4191725
-286.6343585 -240.7370000 1054.4499057
-286.1924448 -240.3780000 1062.9389110
-286.1749598 -251.6630000 1062.1090898
-286.7478143 -230.8140000 1055.0480167
-286.5312986 -209.5940000 1062.8129780
-286.4355577 -220.1620000 1064.6049219
-286.3172153 -229.8780000 1063.7268535
-286.7603980 -201.4620000 1055.3678458
-286.6568021 -190.4150000 1053.9594393
-286.3079949 -199.9330000 1063.6570038
-286.1026085 -190.9100000 1064.6107335
-286.6619073 -171.6970000 1054.9394994
-286.6430715 -160.8880000 1057.4702136
-286.5405261 -182.6200000 1055.4917019
-286.3371517 -160.2860000 1066.1868802
-286.1899083 -171.4350000 1065.4293346
-286.1572070 -180.8540000 1063.8996723
-286.7864953 -139.3160000 1054.2272166
-286.7420370 -150.2890000 1055.1181282
-286.7131214 -143.2000000 1055.0086162
-286.4965716 -135.5090000 1060.1931851
-286.4521262 -151.5170000 1064.6946464
-286.3299196 -143.7000000 1065.2568648
-286.4666641 -129.7420000 1061.5739174
-286.5315445 -110.5640000 1067.3536653
-286.3960661 -120.1950000 1065.6657727
-286.1899963 -130.8760000 1066.8095433
-287.0182845 -91.3629000 1066.4750367
-286.8298875 -100.4813000 1065.9382429
-287.0864926 -81.3062000 1067.1739528
-261.3617792 -627.4490000 1054.9810539
-258.8842323 -629.0080000 1046.6630262
-253.4381991 -628.6320000 1065.9610117
-252.2277203 -629.4810000 1056.2606601
-251.9514009 -630.2730000 1046.5039965
-244.8316553 -628.8850000 1065.6611710
-244.3050903 -629.8380000 1055.5488206
-238.2920502 -629.5160000 1056.3438837
-235.0875720 -628.4390000 1065.1111449
-233.1174510 -629.8680000 1045.5825539
-231.4087057 -629.1190000 1055.7539248
-228.4552672 -629.5430000 1046.6440819
-222.2921890 -628.6930000 1056.0330725
-221.7916952 -627.8650000 1064.8331476
-220.7457173 -629.2480000 1045.6484805
-213.8033075 -628.3640000 1056.1712449
-211.8865073 -627.1780000 1067.7164561
-211.4858781 -628.7230000 1048.0304498
-203.1050228 -627.0750000 1067.2496430
-201.5130188 -628.3130000 1047.7244536
-201.1329732 -627.7720000 1058.3827096
-194.2459040 -626.4450000 1068.9245111
-192.1681055 -627.4320000 1057.6090503
-189.7232944 -627.8520000 1047.2701434
-184.2745355 -626.1270000 1068.8185193
-183.1199928 -627.1150000 1057.5669552
-182.1690601 -627.5270000 1048.1821219
-173.1210420 -625.8140000 1069.4032637
-172.5724983 -626.7060000 1058.8912360
-171.6506997 -627.0690000 1050.3160176
-164.1597211 -626.4540000 1058.1179415
-163.7298282 -626.9150000 1047.1837788
-163.1006909 -625.6530000 1067.4078390
-153.0848485 -625.9410000 1059.0813714
-151.5131409 -626.4100000 1049.0272702
-149.8768164 -625.3500000 1064.6082010
-146.5829974 -625.9160000 1056.2244092
-143.1071253 -625.5680000 1060.2156794
-142.2883389 -626.0640000 1049.3483141
-139.5547142 -625.7630000 1054.2067624
-132.8654625 -625.6190000 1051.4430850
-132.5759806 -625.1700000 1060.9295820
-122.9848461 -624.7690000 1062.6672350
-121.5285859 -625.2010000 1051.7209831
-112.0865837 -624.8980000 1051.1156766
-111.7690522 -624.3690000 1061.8028459
-101.2606633 -624.4130000 1053.9650489
-100.9880516 -623.8700000 1063.5012590
-92.9472022 -624.1440000 1053.6100847
-91.3809932 -623.5890000 1063.5989402
-81.7780473 -623.1870000 1064.5166745
-81.1568871 -623.7280000 1053.5058382
-72.8043714 -623.0640000 1062.8430318
-69.5701367 -623.2520000 1055.7183919
-61.4638363 -622.5940000 1064.9912786
-60.1517619 -622.9380000 1054.9826531
-52.7622220 -622.2420000 1065.4732161
-50.7933587 -622.5500000 1055.7861022
-47.4543556 -621.8260000 1068.3462888
-45.6913156 -622.1090000 1062.4461594
-42.0516822 -622.2680000 1054.4484617
-40.5742315 -621.6640000 1066.1760330
-37.4913600 -622.0130000 1057.1284585
-31.5529812 -621.4990000 1064.6532436
-31.2078487 -621.8750000 1054.8677766
-22.6309666 -621.5310000 1055.8776176
-21.6020940 -620.9450000 1066.0071167
-11.9737537 -621.1350000 1056.3136780
-1.2822163 -620.7610000 1057.1904046
-9.9657721 -620.2000000 1069.9808037
-1.7649929 -620.1590000 1067.8636046
5.8501520 -620.0190000 1067.3264254
8.6961297 -620.4040000 1058.0546824
15.9694024 -619.6580000 1067.4330469
18.7466692 -620.0120000 1059.1302523
26.7393432 -619.0610000 1068.5411770
28.4661826 -619.6030000 1060.2800563
38.1712698 -619.2540000 1060.2394273
38.7079180 -618.6390000 1069.2601670
47.8890099 -618.8990000 1059.7489505
48.2568454 -618.5210000 1069.0267832
56.1191802 -618.5050000 1059.3125203
59.0264419 -618.3150000 1064.4740452
59.5102133 -617.7760000 1072.1636593
60.6315716 -618.2260000 1051.1300262
63.9533204 -618.0150000 1050.7379390
68.1460787 -617.8370000 1060.2025542
69.5256607 -617.3590000 1071.7383882
79.2233401 -617.2110000 1060.9259893
79.4381684 -617.1690000 1069.5210476
79.9528024 -617.0190000 1052.5574456
86.9296057 -615.4450000 1072.5122468
89.0555233 -615.6370000 1062.8978848
90.5122011 -615.6900000 1052.9017849
94.1887694 -611.7270000 1071.9588524
95.9982780 -612.2340000 1063.8491975
98.0229214 -612.5930000 1051.6826794
98.7356529 -606.9600000 1072.6183069
102.9417859 -604.3530000 1063.7603649
103.2095502 -606.6730000 1053.8635307
103.7052354 -595.8740000 1073.5851853
106.5008422 -596.3460000 1063.2323986
106.7752584 -588.3320000 1070.6483173
107.8904506 -577.9720000 1073.7182476
108.7364589 -595.9290000 1054.5300901
109.1035913 -588.0500000 1063.1778145
110.9030040 -578.4710000 1064.0293483
112.6076375 -584.9930000 1052.7773845
113.2945967 -576.7570000 1055.8798461
108.9584331 -566.0900000 1074.1869579
111.7174135 -555.6670000 1065.9038472
111.8187552 -566.7040000 1064.3953861
114.4497779 -564.4350000 1054.3897799
114.4657314 -555.2370000 1055.0801634
110.0213005 -546.6130000 1073.7454402
110.5947042 -527.5040000 1073.5554186
112.2922720 -536.6750000 1064.7136986
112.2970494 -527.0680000 1064.7837926
112.6410671 -544.1320000 1063.0095263
114.0839235 -537.2870000 1056.3836985
114.2983752 -526.3520000 1054.9272194
114.4521772 -545.1290000 1054.9399055
110.4998492 -517.8480000 1074.2338665
110.5912317 -507.1580000 1074.1554494
112.0939777 -505.5410000 1066.3904933
112.2260309 -515.1950000 1065.2426231
114.1199653 -507.0000000 1056.3243185
114.3255456 -515.3400000 1054.9176921
112.2752992 -495.8670000 1066.3736552
112.2860677 -475.7160000 1067.9340808
112.9737032 -486.6290000 1063.8354574
113.4607317 -476.5010000 1062.2337133
114.2195130 -487.1010000 1057.7262694
114.2613581 -495.3710000 1056.6468353
114.7940338 -478.0220000 1055.6959869
112.4616559 -464.7690000 1067.1570269
112.6078521 -454.2180000 1066.4594721
113.5747763 -460.1730000 1061.9456598
114.3477659 -468.9630000 1058.2285842
114.7278107 -457.9320000 1056.6249726
115.0362808 -450.3710000 1055.3401605
112.1670924 -426.5780000 1069.1921960
112.5143787 -436.0550000 1067.2879670
112.6723333 -445.4390000 1066.2605672
114.0538826 -448.3240000 1059.8236982
114.2534672 -436.1210000 1059.0470631
112.1979784 -405.5560000 1069.5427884
112.4483447 -414.9300000 1067.9769194
114.1677853 -405.7360000 1059.7156696
114.4548915 -424.6250000 1058.0504266
114.5495573 -415.2880000 1057.6120120
112.1129327 -395.4170000 1070.4614441
112.5006925 -384.4030000 1069.2180221
114.3863050 -395.0360000 1059.2294092
114.4889876 -385.9250000 1059.1911955
112.2154228 -356.8940000 1070.0331676
112.5457656 -376.6010000 1069.3288256
112.5669516 -366.7100000 1069.0891588
114.1271765 -356.6680000 1060.4950796
114.2895482 -375.1390000 1060.4179016
114.4893839 -364.9190000 1059.1111902
112.0307707 -345.0720000 1070.4700115
112.1856165 -334.9370000 1069.7926107
114.1491585 -345.8240000 1060.7254983
114.2554295 -336.6380000 1060.9973944
116.0985201 -336.4290000 1053.1583668
116.2551079 -346.1290000 1051.7508853
111.1019467 -327.3310000 1074.0043396
111.4593260 -316.8050000 1071.9802684
111.8826953 -306.7100000 1069.9573491
112.4601391 -326.4950000 1068.4471969
114.0927121 -316.9920000 1061.7246654
114.1723182 -326.3190000 1061.5760320
114.3284477 -308.8500000 1060.5385989
116.1784247 -305.7840000 1052.4196489
111.8228676 -296.4150000 1070.8064343
112.0559073 -285.3690000 1073.0408417
113.7408669 -297.5030000 1062.8586975
114.2227968 -285.6320000 1063.4972056
114.9855595 -290.8260000 1058.5897702
115.1115663 -296.6670000 1057.5018036
113.4993970 -275.4150000 1072.1659008
114.5239387 -278.1160000 1066.0128444
114.5392892 -266.7030000 1072.7541390
116.0775956 -275.6310000 1060.8891791
116.3674166 -258.7430000 1068.4653911
117.1878116 -265.9170000 1061.6886768
117.6841480 -277.5380000 1052.5059405
118.0604714 -257.3820000 1061.5438848
118.9400513 -268.9830000 1052.4078441
115.6655141 -255.0810000 1072.6937852
116.4597129 -235.7180000 1073.1477150
117.5784833 -238.0860000 1067.9564496
118.0448541 -246.1300000 1064.4440539
119.0436561 -237.6800000 1061.7710783
120.2821666 -255.5460000 1052.8713378
120.6763937 -247.3200000 1053.1482602
120.6837223 -233.8990000 1055.4787431
116.9667808 -215.8520000 1073.6066344
118.1957171 -227.5800000 1066.9170635
119.0175167 -217.1150000 1064.7010684
119.3995546 -227.4220000 1061.8372997
120.0957877 -218.8940000 1059.9391615
121.2209356 -226.4830000 1054.2679343
121.5236677 -214.6370000 1054.3432292
117.2873176 -206.3360000 1073.2921807
117.5048881 -197.2900000 1073.3759906
119.0670068 -205.6060000 1065.7620937
119.6594483 -195.9200000 1064.2522032
119.9984879 -187.5440000 1063.5080070
120.2157581 -206.3720000 1060.8013866
121.8550429 -205.9850000 1053.8089311
122.2134614 -196.9210000 1053.2150959
122.3698519 -186.7160000 1053.5378745
119.7832908 -168.4350000 1065.0644883
119.8228704 -178.0740000 1064.7451304
121.6878957 -166.1420000 1057.1965299
121.7784023 -177.7500000 1056.5380092
122.6760711 -180.0010000 1052.7831038
119.5199265 -157.0290000 1066.6301304
119.6461797 -145.1930000 1067.1324104
120.0688902 -135.0730000 1066.5797035
122.1127950 -154.1420000 1056.4038247
122.4882582 -146.1530000 1055.7502779
122.5043570 -136.5170000 1056.8907326
120.4476466 -115.0640000 1067.4564472
120.4811112 -124.2530000 1066.2268440
122.9587608 -127.7170000 1056.2985728
123.7133081 -116.2070000 1055.4716155
120.7906563 -106.5270000 1067.1723903
121.6655051 -86.2685000 1066.7875999
121.7072522 -96.6923000 1065.1980864
124.6547177 -104.7010000 1054.9979733
124.9933856 -96.4361000 1055.9940355
125.4064239 -86.0111000 1057.1414188
121.8205973 -76.9589000 1067.7004457
122.3165071 -66.5852000 1067.9391369
126.6113156 -66.5857000 1059.3927900
127.0086349 -77.2398000 1056.1692332
129.7202445 -69.2656000 1054.4963025
123.3752006 -55.8351000 1067.5075479
124.0501011 -47.6298000 1068.1494243
124.7489507 -37.7766000 1068.8517278
127.7041850 -56.0038000 1060.2119879
129.0359528 -46.1272000 1060.6953041
125.8232374 -26.6453000 1069.9906502
127.2564041 -16.1695000 1070.7957850
128.7609933 -36.3340000 1063.4409236
130.3234715 -29.1099000 1063.8282515
128.0148548 -7.0170000 1072.8393331
132.8206157 -56.8366000 1054.9604821
134.4546719 -48.1794000 1055.6591067
139.2653582 -43.5292000 1053.9428034
141.5746247 -38.6233000 1053.8330889
141.8723949 -47.0801000 1051.9580002
132.4454486 -14.2468000 1066.6557158
136.7746269 -36.5512000 1056.9997997
137.0675156 -27.4141000 1059.4152792
138.9882542 -17.1381000 1062.3692506
130.6935593 2.7623800 1073.1661327
135.5004808 -6.3807800 1067.7692030
139.1521417 3.7238000 1069.8832553
142.7056539 -9.4240000 1065.0145311
142.7704680 -2.0168380 1067.7760829
143.2924292 -6.5452600 1066.4649927
138.5953996 12.8593000 1072.6139547
139.2767675 22.7077000 1074.7761755
-287.8293956 -457.5440000 1070.1414393
-287.6855575 -453.4270000 1073.7044923
-287.3067992 -461.6430000 1077.9617509
-287.7894915 -441.2790000 1068.1418312
-287.5714628 -430.7270000 1067.8555927
-287.2915717 -443.1720000 1076.4017791
-287.3914103 -413.6460000 1067.9687523
-287.2334537 -421.6040000 1070.3218674
-287.1924519 -390.6960000 1068.8323561
-288.7266359 -40.5101000 1067.8554321
-289.3301750 -18.9015000 1071.6054701
-289.0655597 -29.7061000 1069.5097690
-287.8435136 -21.0588000 1077.4823109
-295.3632806 10.0550000 1069.8399089
-292.6774646 -0.0289700 1070.4468753
-292.2427659 -9.1423000 1068.0040898
-290.4828391 10.2231000 1077.9363175
-289.0670155 3.6863600 1079.3912486
-288.1821422 -12.6261400 1077.9164672
-288.0480808 -2.4412990 1081.4093389
-287.7866278 5.5173700 1084.5943869
-302.3761423 20.1531000 1067.9372278
-301.1253456 30.1303000 1071.5696105
-296.1615601 19.4516000 1072.0263100
-292.4528635 29.7662000 1079.5821865
-291.1372091 19.0717000 1079.1550828
-288.5394786 26.9138000 1088.1317866
-288.2559428 18.5225000 1086.5564951
-303.2782083 48.0198000 1074.5224876
-302.4472469 40.1991000 1073.1567819
-300.9318690 52.4034000 1077.2738559
-297.1583052 40.4269000 1076.5296003
-293.3406025 50.4107000 1082.3671175
-293.1836183 40.3902000 1080.8796307
-291.1010543 55.4589000 1085.5066812
-289.1147694 39.7246000 1088.6018180
-288.6528478 50.2124000 1090.1001079
-300.9052236 60.3991000 1080.0447429
-300.6475334 69.0061000 1082.9296796
-299.4358793 78.5657000 1085.4812145
-297.7520492 83.0893000 1086.8808146
-293.3495699 68.3042000 1085.2874058
-288.9013695 69.4552000 1089.3256526
-287.9217879 79.9190000 1089.4727711
-297.1149292 90.4817000 1088.9422478
-288.7973674 88.0363000 1089.7275289
-263.0040854 -623.4010000 1075.9555862
-279.4292589 -601.3910000 1073.9886278
-276.0083065 -603.5590000 1079.5791832
-272.5890544 -614.3250000 1075.6982662
-270.5052947 -612.7340000 1081.3454930
-269.6375376 -604.8160000 1084.4611119
-269.0204840 -620.3410000 1073.2901796
-265.7693780 -608.3800000 1085.0587117
-263.6456088 -619.5770000 1081.5952490
-263.4489713 -613.6150000 1084.7691642
-283.9228336 -573.2460000 1075.9304999
-283.6617381 -582.0220000 1074.4948380
-281.9939742 -591.2880000 1074.9240098
-279.6992741 -573.6410000 1084.4155035
-279.1578348 -593.2960000 1081.0144349
-278.2020764 -582.1410000 1083.9015549
-275.3753258 -584.3650000 1085.2010864
-272.7041325 -594.2400000 1084.6976285
-284.1721206 -557.2210000 1071.4754707
-284.1986270 -550.7720000 1074.0253965
-284.1144147 -563.8060000 1074.5869517
-283.6584903 -556.6070000 1079.4656517
-280.7267325 -552.2440000 1085.1776879
-280.4466513 -563.1960000 1084.6024884
-285.0406927 -532.1760000 1076.3710577
-284.3841777 -542.2990000 1075.6023984
-283.4758294 -531.8330000 1083.6694799
-282.6938553 -526.5330000 1086.3135299
-281.1803403 -532.2240000 1086.2399332
-280.7943911 -542.1690000 1084.7564430
-285.8473527 -501.4940000 1078.4072896
-285.6307707 -512.4970000 1077.6309513
-285.4918051 -521.9140000 1075.1129931
-285.5545142 -502.7320000 1086.3836152
-284.8756975 -512.6040000 1086.2854472
-284.3294855 -522.6620000 1085.0747956
-286.5316841 -482.7960000 1077.0451389
-286.1642751 -491.7940000 1077.9416877
-285.7026155 -483.2230000 1086.9611184
-285.5084412 -493.3840000 1086.4944362
-287.0984280 -451.4540000 1079.1455678
-286.9858302 -471.9110000 1078.3674144
-285.6682064 -471.4230000 1087.2817678
-285.4372236 -460.8140000 1087.6858605
-285.2074838 -452.8340000 1087.1297854
-287.0380786 -431.9650000 1074.8859723
-286.7159673 -441.7560000 1081.2425620
-286.4079083 -431.5750000 1080.2677900
-285.2313675 -444.1560000 1087.4094111
-284.4428841 -432.4660000 1087.5031863
-287.1471830 -402.4770000 1069.9633184
-286.2846792 -422.9510000 1079.1097642
-286.2380207 -412.7450000 1078.9005467
-284.3346933 -422.9020000 1087.6650992
-284.1468279 -402.0250000 1088.6485277
-284.0849173 -411.4210000 1088.5395916
-287.0430243 -383.5470000 1069.9551350
-286.3066498 -401.3690000 1078.0192147
-285.9051887 -382.9740000 1080.7466365
-285.8392428 -391.8040000 1081.4378927
-284.6172326 -392.7140000 1088.6103122
-284.5638883 -382.7980000 1089.2213362
-284.1662800 -392.9180000 1089.6483405
-287.0139342 -372.9190000 1069.8356245
-286.8387797 -362.3220000 1071.0888722
-285.9099515 -371.4100000 1080.4465077
-285.7587460 -361.6830000 1081.6393283
-284.7051653 -361.1180000 1089.8089601
-284.6097688 -371.2260000 1089.5005780
-286.7862853 -341.0390000 1070.0296270
-286.6132984 -349.9110000 1072.5530304
-286.4906515 -333.1020000 1072.3451392
-285.8327087 -351.1310000 1080.5478712
-285.7325461 -341.1860000 1081.1697140
-285.4443516 -331.9810000 1084.2552136
-284.8687586 -342.9700000 1089.9561274
-284.7983436 -352.4690000 1089.4172742
-286.4054133 -321.9970000 1071.8165463
-286.2484519 -311.7540000 1072.0493211
-285.6037876 -312.8320000 1081.2419722
-285.5216157 -321.8790000 1083.1236929
-285.9695025 -298.3300000 1073.5444172
-285.9151976 -289.3440000 1072.7252402
-285.7592800 -281.5260000 1073.6481019
-285.4442963 -301.1790000 1082.7049785
-285.3978743 -291.5220000 1082.7958025
-285.2986756 -281.7790000 1084.2177503
-285.6480457 -260.8430000 1073.1199627
-285.6135174 -271.1760000 1074.9808488
-285.4781937 -262.4920000 1077.0835307
-285.3316006 -271.9220000 1082.4369045
-285.2793947 -261.2230000 1083.8580320
-285.6683085 -241.5500000 1073.8797248
-285.6096665 -249.8900000 1073.9007515
-285.3868566 -250.1000000 1080.4456368
-285.4065646 -231.7500000 1084.0958488
-285.3759103 -240.7050000 1082.6261600
-285.1876973 -250.6010000 1086.3400104
