
-53.1016413 -785.0033736 974.4560000
-63.7824900 -782.0621506 981.8390000
-54.0712535 -781.2395685 982.0590000
-50.1914461 -808.7873151 970.4870000
-44.3063663 -784.8264701 973.5950000
-45.4605825 -804.2683154 970.5760000
-43.4340742 -794.2312276 971.4660000
-36.9295242 -796.3771896 970.9460000
-34.1661751 -785.5706268 973.0830000
-34.7395138 -805.1342888 969.8730000
-43.3481998 -780.7333377 979.8260000
-34.3057018 -780.3912773 980.7600000
-24.1931269 -794.9150741 971.0020000
-24.1279024 -806.0657865 969.6130000
-14.0591735 -807.9437201 970.2120000
-13.0474630 -796.7971409 971.0630000
-12.3465746 -788.6261282 972.4760000
-5.8231310 -806.6581056 971.1190000
-4.2439582 -796.7561425 971.4300000
-23.9690661 -780.3843075 980.4090000
-23.8196170 -785.7919052 973.7580000
-13.4860153 -781.6556652 977.8010000
-3.5586033 -787.0583270 973.1210000
5.2979410 -806.7300477 971.5720000
6.2883788 -798.1211663 971.3070000
7.0544102 -788.8881107 972.1550000
15.1995406 -806.5783789 970.9870000
16.5206398 -788.7982225 971.0010000
16.8400968 -798.5051523 970.5540000
-0.5009056 -781.4409376 975.4720000
7.1401531 -780.0224956 975.6190000
15.7178287 -780.0930158 974.1030000
17.1413948 -777.0739645 981.6110000
24.7084611 -790.8112798 969.6880000
23.6983496 -808.0247491 970.6140000
26.0374192 -797.9343346 969.6100000
34.0187760 -807.6206814 969.9260000
35.6769147 -798.8028675 968.7210000
25.8617549 -780.2089026 971.7440000
27.5474142 -776.4292813 981.4330000
34.8953465 -789.3423026 968.4500000
36.9166418 -775.8013159 981.2830000
36.8165738 -779.7339151 970.9000000
42.6192314 -775.5805707 978.0470000
44.4413677 -809.2075902 969.0940000
46.6886147 -799.9758622 967.7760000
52.4782201 -798.7788087 967.1380000
53.1840695 -810.5106244 967.5870000
56.6741478 -801.3146791 966.7110000
57.6071742 -808.4300965 966.6700000
65.1435230 -802.9554697 965.8070000
66.9822734 -810.3487441 965.2940000
46.8320121 -779.5440944 970.4830000
46.7606307 -789.7339370 967.4410000
55.8926510 -780.0964782 968.2620000
56.1620535 -790.9406867 966.7370000
58.0524701 -775.7706019 974.9860000
60.3293342 -783.5172985 966.6830000
65.6773285 -791.3364027 965.9780000
67.2629528 -782.7671359 966.4230000
67.6638260 -778.1668935 969.8990000
68.8612447 -776.0953751 974.7220000
69.3585987 -774.6024320 981.9370000
73.9624591 -800.0245080 965.2520000
75.8717229 -809.6922416 965.0560000
84.3587152 -802.7062467 964.5830000
85.6524148 -808.8053477 964.6050000
74.3431509 -791.1684909 965.2640000
76.2076986 -779.2555358 968.5560000
76.6610881 -783.6238035 965.8180000
79.2303763 -776.0255190 973.9500000
83.1835806 -779.8305494 967.9660000
87.8902426 -776.2581674 971.9570000
86.8754943 -792.6763761 964.4870000
87.7890523 -783.6831957 965.5720000
88.4901126 -773.9012709 980.9530000
96.2763102 -804.8628294 963.5190000
97.0057195 -794.6468248 963.6360000
104.5351694 -804.9812267 962.6590000
115.1114462 -807.2675599 961.8060000
116.4787337 -795.6706877 961.5880000
96.0334624 -785.3844408 965.1950000
96.9241582 -773.6790589 981.0410000
97.3983067 -775.4424293 972.9680000
98.6934223 -779.3422719 967.5970000
106.9569791 -776.0246268 972.1270000
105.7574446 -794.6553350 962.7280000
107.0864573 -783.7635103 965.1820000
115.9768302 -783.8679257 964.5420000
117.1602042 -776.8794501 972.0650000
117.6325456 -774.2389669 981.7810000
123.9853481 -805.0271144 961.0790000
134.8559919 -805.7702223 960.3080000
127.1298885 -777.9775751 969.8230000
126.9954230 -785.4483938 962.5790000
128.2899532 -774.4619332 981.2950000
126.9893380 -795.5846608 960.8280000
136.5780824 -776.3837654 971.7780000
136.0572159 -785.4094176 961.9800000
135.6887743 -794.4056307 960.1840000
138.1156306 -779.2680453 965.5820000
145.1190206 -806.2142166 959.1120000
155.1035283 -804.9786910 958.6510000
157.0770055 -799.4498859 958.6390000
146.4382976 -774.6463470 970.9540000
146.1433226 -786.6059034 960.0950000
146.2375656 -796.6549565 959.1440000
148.0386281 -779.2562098 962.8840000
156.3520598 -787.8119668 958.9010000
157.1762973 -776.6412514 962.3110000
165.4608839 -798.2678363 958.6700000
167.0578478 -780.0749178 958.8950000
167.8032955 -789.4126639 958.4450000
145.4437899 -772.7122623 981.8310000
152.6355889 -772.2638445 972.4990000
159.0415446 -767.4850605 972.4500000
161.0456199 -771.0375113 963.5280000
161.7610147 -763.0289062 978.7250000
165.1281162 -757.4251328 981.4830000
166.5112247 -758.5613814 972.1910000
167.4147411 -767.9753394 962.0820000
176.1007029 -660.1315394 980.8500000
176.8153893 -640.2058555 981.1580000
176.1785388 -650.9044924 981.8140000
177.5462010 -608.5667631 981.9310000
177.4661161 -619.1018396 981.5880000
178.2300574 -589.7987486 981.6950000
178.3741513 -600.0237075 981.1410000
178.6560809 -579.3339748 981.6700000
181.0453683 -539.5316867 980.3380000
179.7510675 -558.8725141 981.1520000
180.7575939 -547.6323454 980.4360000
182.0273354 -529.2591619 979.2910000
182.8402747 -518.9667980 978.8680000
183.3875346 -508.8182516 978.6830000
184.7180778 -490.1776580 978.5400000
185.2135787 -500.2226916 977.5870000
184.5597420 -470.1357921 979.7570000
185.6617777 -478.6604318 978.3090000
189.3614545 -469.6194849 976.3140000
185.1613283 -439.8429648 981.6890000
185.9564154 -459.4662286 979.2360000
189.0028559 -448.4418828 977.6090000
192.2688230 -439.5249840 976.2490000
188.4842097 -427.9618154 979.9820000
188.3354497 -437.3573254 979.0160000
190.7234870 -418.6032224 979.8760000
193.2511622 -429.9782532 976.2640000
192.5725092 -409.7937443 980.5820000
193.3759138 -399.9387807 982.0150000
172.7955163 -797.9988190 959.0040000
177.3041072 -780.7873963 958.6460000
176.8394271 -790.4144328 958.9710000
182.6985086 -787.7937578 959.3570000
187.7010876 -780.9500492 959.2970000
172.0371962 -753.6799628 966.8510000
171.6766539 -761.2873438 962.9570000
177.8346936 -757.4305119 961.0360000
179.3841143 -770.8823621 958.7060000
186.8558287 -761.1267985 959.0830000
190.5766748 -770.5914069 959.1430000
194.3148735 -759.5803480 959.1160000
172.1096131 -738.3947804 981.0840000
172.4185224 -746.8218568 971.9160000
174.2857347 -736.9781281 973.5030000
175.4948027 -728.3033371 973.8470000
175.8579778 -738.7641529 969.3860000
178.0267526 -730.5714820 968.5280000
177.9804750 -748.0919328 963.6610000
181.3403145 -740.2983185 963.3860000
182.7447112 -729.9340374 964.2170000
188.9975552 -749.9950814 960.1200000
190.6162559 -740.2933634 960.7230000
192.0036101 -729.8717538 960.8010000
194.4032710 -752.5102920 959.6840000
174.3785885 -710.1472466 981.9230000
173.8000540 -719.8685707 982.2320000
176.4773045 -708.6620277 975.9500000
176.2391423 -720.7839427 974.1450000
177.9251932 -718.8207735 971.3000000
179.2940552 -708.7066229 970.7720000
182.0798406 -719.8310480 966.1500000
184.5419608 -711.2709448 965.0880000
191.9624347 -709.5162967 961.4540000
191.8447821 -719.3700930 961.2360000
174.8312203 -700.2767766 981.7040000
177.1243702 -692.2120935 976.0000000
177.5983252 -698.8523302 974.4750000
181.3997352 -688.4712153 969.9080000
181.2794035 -698.2486387 969.3510000
185.5648375 -699.6249280 965.2540000
187.1233246 -688.6769739 964.7640000
188.0941582 -680.5849841 964.8580000
191.4343067 -688.5553967 962.4990000
191.4093532 -699.1765285 961.9630000
178.9279394 -660.4705834 975.1440000
178.4964566 -669.6658839 975.1820000
178.2290187 -678.2641734 975.1000000
182.7229146 -659.9440248 970.4650000
182.6132475 -677.8119001 969.3540000
183.6094176 -667.5082903 969.1380000
187.8146875 -659.2936246 966.8730000
188.2196851 -670.2315199 965.6930000
192.4468869 -670.4479218 963.8070000
192.6186103 -679.9480424 962.7560000
195.6322574 -660.5189355 963.8020000
180.0305597 -649.2180878 974.3630000
180.9545920 -639.1289684 973.9860000
184.7873899 -638.2622195 970.0000000
184.3546911 -646.7868014 970.0310000
188.6921718 -649.9991940 966.7980000
189.3731573 -640.8484063 966.8690000
194.8228224 -650.0319263 964.5070000
196.2405527 -640.4374505 964.1140000
180.0666555 -630.5100338 975.8230000
181.8765522 -607.4370813 975.2850000
181.6193806 -619.6158087 974.8250000
184.7418697 -629.0646394 970.8750000
187.6601159 -610.3977343 969.9770000
187.5555268 -619.5056249 969.4600000
191.0088471 -629.7855577 966.5500000
191.8124623 -620.3576492 966.8300000
196.1772042 -610.3928444 965.7710000
196.3389036 -620.0506499 965.0360000
196.1320502 -630.1909217 964.6560000
183.0303914 -600.8996442 974.3840000
184.8721831 -591.0180500 973.1320000
190.2461040 -600.4819694 969.2010000
191.9844298 -588.9691843 969.2350000
194.2880811 -605.3828618 966.6990000
197.1374004 -591.8446418 967.3270000
196.6573023 -601.1187431 966.5490000
183.9465882 -568.8314383 975.2370000
184.3458310 -579.9233073 974.2510000
192.1229987 -560.4523849 970.8170000
191.6156126 -570.3460920 970.5240000
191.9385053 -579.8347297 969.8650000
198.0855451 -580.6795835 967.9140000
199.0528547 -570.0862548 968.2700000
184.7789923 -559.1208493 975.0510000
186.2350841 -541.1075417 975.1560000
186.8380734 -549.8017828 973.9510000
192.5795544 -538.7132772 971.8640000
194.0016372 -548.3379219 970.6060000
199.1551876 -549.3127901 969.1050000
199.9082777 -540.4497330 969.6730000
199.2523386 -559.0192114 968.6060000
186.3357061 -530.5368109 975.4680000
188.0625548 -518.5430536 974.9240000
194.5582552 -519.8493528 971.9800000
194.8696895 -528.1543079 971.7110000
201.1079836 -520.8847610 970.0920000
200.7066968 -531.3111669 970.0040000
189.8666723 -490.2199087 975.0000000
188.6134977 -508.2844961 975.0580000
189.8873646 -499.2994695 974.6300000
197.0533064 -488.9852153 972.2900000
197.2617341 -499.6377034 971.7310000
198.0253669 -510.7510433 971.1040000
190.7228538 -479.3521596 975.0730000
198.1038641 -468.8294000 972.8140000
197.9700772 -479.0429472 972.4690000
191.8177247 -459.7668251 975.4880000
192.7937538 -449.0488009 975.5300000
198.7456918 -439.7673780 973.7740000
199.1968622 -450.3746889 973.1270000
199.7590927 -459.6374718 972.5170000
197.0568244 -416.4828486 976.8670000
200.1105563 -431.7460466 974.0200000
201.4111850 -421.2171259 975.2840000
202.8642880 -400.1070662 978.9480000
202.7489185 -408.4373105 977.6120000
203.5170093 -413.2365806 976.4610000
203.0126413 -381.4709181 981.7700000
203.4561547 -390.7254997 980.1710000
-257.7075398 -561.3379499 986.4790000
-255.4407543 -537.5370952 986.3330000
-255.4903403 -507.1666554 986.2850000
-255.2450934 -517.8086864 986.6220000
-255.8045621 -527.7017589 986.5900000
-258.6088749 -480.2435340 986.7630000
-257.8061486 -487.0992295 986.3380000
-256.4075344 -498.4213721 985.9860000
-259.0531105 -456.9217350 985.9410000
-259.4033995 -466.2891186 986.7440000
-259.2106876 -475.1020293 987.0810000
-252.4563407 -458.7323129 990.9100000
-252.7433106 -478.2899363 990.3490000
-252.0851295 -469.1355490 991.5930000
-258.2297715 -448.3442740 985.0480000
-256.9461981 -438.1309323 985.7030000
-251.7196459 -438.5635721 991.2490000
-252.3628994 -449.5544743 990.9060000
-257.4574008 -417.6734392 984.9130000
-257.2254306 -425.7242320 985.1570000
-255.0417725 -418.6232586 987.4800000
-254.0733933 -408.7457482 988.6660000
-254.8978427 -427.6893833 987.4600000
-250.7960277 -419.0905652 992.6280000
-249.6644449 -411.5812080 994.5700000
-250.2800349 -428.0684286 993.2020000
-246.4431448 -409.1519971 1000.9040000
-257.8473797 -391.4684015 986.6150000
-257.4199153 -399.4185862 985.8930000
-257.6903290 -406.7405590 984.6810000
-255.1892159 -388.7060968 989.5880000
-254.1049092 -398.4304222 989.2680000
-250.4084064 -400.1865550 994.1200000
-249.2494126 -391.2817106 996.7670000
-246.0814366 -388.9269614 1003.0610000
-246.4455199 -399.5524474 1001.4310000
-256.2371284 -370.5337312 995.1460000
-255.8280314 -378.5888903 991.6200000
-253.7828612 -366.8740173 999.0020000
-248.1331945 -369.7711755 1003.5590000
-247.4463533 -378.6998368 1002.2050000
-254.8972269 -348.6771564 1004.6670000
-254.0334299 -358.6304576 1002.3400000
-246.7662061 -747.8485091 988.0850000
-246.3953728 -753.6124177 985.7930000
-258.6509701 -729.1378918 982.9310000
-253.1473796 -730.0670663 986.5990000
-253.0537794 -739.7812588 984.6550000
-248.6154548 -729.8536776 992.6140000
-247.0097377 -739.1172523 991.7070000
-245.8803678 -726.8371194 999.8420000
-244.5168089 -729.2420949 1003.4760000
-264.0351384 -698.2741286 985.5900000
-260.8589040 -699.8725853 986.5140000
-261.0834579 -709.2768295 985.0410000
-260.2326998 -719.0008626 983.5090000
-256.2221612 -698.7623236 988.7700000
-255.7071892 -707.0093355 988.3280000
-251.3244053 -697.6753259 994.0070000
-251.0748628 -707.8545291 993.6490000
-251.3943749 -719.0324700 991.6030000
-247.9033287 -699.1555739 1000.9950000
-248.0400709 -710.1568338 999.3790000
-246.5612814 -719.4436110 1000.9780000
-263.8106517 -678.9076122 986.0740000
-263.9233590 -688.5903367 985.8320000
-261.4650787 -685.5183344 986.8650000
-256.2485873 -679.0274069 989.1490000
-256.3076364 -688.4301926 989.4190000
-250.3939994 -678.2629401 994.6050000
-250.4566118 -688.0464045 995.5060000
-247.4235991 -679.4791073 1001.2550000
-247.2144397 -689.9060971 1002.8780000
-263.6744096 -668.5729412 986.1400000
-262.0516435 -649.7673301 985.7320000
-262.4467732 -657.2098970 985.7810000
-259.1238356 -669.1106831 986.3630000
-255.7982455 -657.8502346 984.2360000
-254.3025233 -669.9340064 989.1820000
-252.6318877 -659.8479750 987.8400000
-250.0797044 -667.3603060 993.2540000
-248.5239947 -658.2726898 994.5620000
-247.2094043 -670.1513268 1000.1890000
-245.7360503 -659.7327235 1003.5610000
-261.6088169 -638.6752002 985.8860000
-260.2079719 -628.0319919 985.4810000
-254.0895381 -629.6156500 983.8830000
-253.7808904 -639.1073014 983.1900000
-253.5689102 -648.1320723 982.8790000
-249.5594602 -629.9304190 993.0510000
-250.0988423 -638.5327485 990.1380000
-250.2034258 -649.3608298 989.0760000
-248.7282849 -641.4254001 994.2240000
-248.2564550 -646.6911404 994.7580000
-246.7329410 -628.5021078 1002.7360000
-246.2802145 -639.2448572 1003.2800000
-246.1213701 -648.3270614 1002.2310000
-260.7304523 -614.7602162 986.3040000
-259.5834118 -609.1084623 985.8680000
-258.4996647 -601.1506759 985.5120000
-255.2002638 -619.5666909 983.9930000
-254.1767910 -611.0373077 985.4520000
-250.2192284 -601.4049092 991.9040000
-249.6169336 -608.9192277 993.5520000
-249.9911021 -618.0403456 991.9130000
-247.1940292 -609.9226853 1000.8760000
-246.3327038 -602.0205191 1004.8650000
-246.0770948 -611.3961881 1004.5810000
-246.5682970 -619.0084667 1002.9270000
-257.0916160 -576.8286492 985.7880000
-257.6495011 -588.8780849 985.4790000
-253.7611139 -598.0827472 985.2840000
-252.5898935 -590.6373107 985.2870000
-250.3723319 -583.6249181 984.9200000
-249.0572898 -577.7353040 991.4490000
-249.6667492 -589.5044593 991.9890000
-247.2018074 -577.6354928 1002.3900000
-247.7167207 -589.6438259 1001.6520000
-247.8786026 -601.1766269 999.9110000
-255.7529131 -572.5646455 985.5560000
-252.6525501 -558.8625382 984.9810000
-252.3593358 -569.7074094 985.3320000
-248.1231009 -558.8995869 991.4500000
-248.0343523 -567.6079909 993.1910000
-246.3749132 -559.6603875 1000.4930000
-246.5057859 -569.3448492 1003.5470000
-255.7136061 -548.0907702 986.1740000
-251.6445944 -538.7568732 986.2770000
-250.8889654 -551.3322162 986.7890000
-247.0753737 -530.6989773 992.2040000
-247.3856179 -538.7339085 991.8300000
-247.3928673 -549.0445189 992.0750000
-245.5877692 -549.9376117 1002.0760000
-244.7190648 -539.3925222 1004.4280000
-251.5671110 -506.8846391 988.4210000
-250.2361068 -527.1729064 986.3230000
-247.6290322 -508.0531921 993.2070000
-248.0417189 -520.2912157 991.0080000
-244.8971004 -508.6943238 1002.3010000
-244.9942320 -517.8819288 1000.2370000
-244.6694025 -528.7620913 1002.0570000
-251.2412444 -486.9427930 990.9630000
-250.8848038 -496.5681038 990.1700000
-247.2991620 -490.0754097 996.1000000
-247.7701155 -501.2257192 994.2980000
-245.2837151 -489.5086195 1003.1500000
-245.7048311 -498.8710503 1000.1670000
-247.3620882 -461.1716120 999.6630000
-248.0259973 -474.4075421 997.1100000
-247.1660632 -469.8654638 999.4940000
-246.0801010 -458.7651769 1004.2940000
-245.7754056 -469.1878204 1004.5930000
-246.1420955 -478.4026884 1001.9470000
-246.6621995 -438.5904271 1001.6280000
-246.8819193 -447.9398750 1001.8210000
-246.4171541 -427.9756636 1001.5450000
-245.6969923 -418.5800122 1002.5970000
-234.9328381 -773.9315000 984.0440000
-226.4768487 -775.0440702 1002.7120000
-223.7240123 -783.5718716 983.2830000
-243.6917997 -751.6772956 992.3090000
-244.3817636 -762.8774492 983.7190000
-241.3276824 -750.3389480 1003.0190000
-240.6316511 -760.1253398 991.1440000
-238.8497989 -758.2400430 1001.2040000
-237.0933955 -764.8326227 993.5860000
-236.0282028 -763.8635662 1000.7670000
-233.4996137 -770.9391876 990.8690000
-232.3447821 -769.2616582 1000.1290000
-244.3977879 -743.3808386 996.4060000
-243.4316423 -739.5418820 1002.8100000
-223.2652006 -779.9350175 991.6840000
-221.2900407 -779.1558998 1001.6020000
-214.0212161 -784.2433401 993.2450000
-213.5164782 -785.9276518 986.3060000
-211.4089333 -783.6280650 1002.6280000
-205.2182111 -786.2422760 991.8500000
-203.8064187 -784.8323231 1003.3550000
-194.4667193 -786.2522866 992.0340000
-194.0009089 -785.2964515 1001.4650000
-193.8421429 -787.4126815 985.3320000
-184.7506251 -787.4790354 982.6010000
-184.1457326 -785.0503143 1002.8890000
-183.7055665 -786.0524599 991.4410000
-173.7910844 -784.5854857 1003.7180000
-173.7288063 -785.6875145 992.5600000
-162.6847884 -786.5459975 982.7590000
-162.5051996 -784.1927927 1002.1560000
-161.4988006 -785.3117212 992.0930000
-153.8177668 -783.6584958 1002.5900000
-152.3634533 -785.1956881 989.4680000
-144.6782445 -784.5722626 990.5700000
-143.7422551 -783.2002116 1001.8220000
-135.6562295 -782.9546661 1000.6000000
-132.6015992 -783.5712483 992.4140000
-130.1635433 -782.7753798 1000.7810000
-126.4737196 -783.7711947 987.7530000
-123.9874451 -782.5165722 1002.3640000
-122.3239010 -783.2664418 992.4020000
-114.8393670 -782.2901583 1002.5280000
-112.9024477 -783.0972370 993.0140000
-111.2299895 -783.9289278 983.8190000
-105.1604143 -781.9765641 1001.7160000
-103.4233951 -784.0267265 983.6560000
-102.7079418 -783.1234336 991.0210000
-94.5444255 -781.2393021 1002.8430000
-93.9654047 -784.2209557 982.5680000
-93.2395190 -782.6036512 992.0870000
-82.7798551 -782.1752369 990.0530000
-83.9159255 -780.6643081 1001.7270000
-72.6133552 -782.5503298 982.8690000
-75.3517976 -781.2711898 992.5390000
-73.3348412 -780.0649472 1001.3680000
-64.1313143 -780.5852202 991.9050000
-62.4048524 -779.4418669 1001.9800000
-53.7733160 -779.9592327 991.8480000
-53.0937435 -779.0744821 1001.5560000
-44.7779794 -779.5246571 991.3240000
-44.1126512 -778.5146076 1004.3980000
-39.8410937 -778.9245750 996.5460000
-33.6228573 -779.0957543 991.0610000
-32.8212849 -778.3267960 1001.6190000
-31.0257081 -779.5670703 985.0640000
-22.3862138 -778.5422345 993.9440000
-22.3168913 -779.2568109 986.1050000
-21.9302162 -777.9044898 1002.7980000
-15.1546365 -779.8157862 982.7430000
-13.4273727 -778.5892863 990.8120000
-12.9210622 -777.7595836 1001.1640000
-5.5541533 -779.2080015 982.4440000
-2.6535699 -777.4430366 1001.0420000
-2.4186120 -778.1671904 990.2640000
5.8530675 -778.0348713 982.3700000
6.7210311 -777.1783309 999.4390000
7.7238119 -777.5161042 991.2440000
15.6902496 -776.9895321 991.0690000
16.9523506 -776.5705512 1000.8300000
26.0059955 -776.2854069 992.2070000
27.6523192 -775.9053228 1002.6270000
35.6363622 -775.6315947 993.0200000
39.0027761 -775.2414735 1001.2420000
43.7364883 -775.1815346 987.7850000
46.3558865 -774.7411819 1002.0080000
48.1386964 -774.7746259 994.0990000
49.4066286 -774.9775667 983.1690000
56.5542005 -774.7315569 983.2330000
57.7251213 -774.2661023 991.3210000
58.3897300 -773.9236289 1003.1790000
66.3358524 -773.8768083 991.2160000
68.3563499 -773.3524738 1002.2950000
76.4242134 -773.2921125 992.9910000
76.5327582 -772.8866966 1002.7480000
77.1193784 -774.0594740 983.6350000
85.2031914 -772.6098411 999.9130000
88.0141181 -772.9527567 991.8680000
97.4307971 -772.1536845 1001.9760000
98.8481770 -772.8141649 991.5600000
107.1231759 -772.0996591 1001.3680000
107.2422960 -773.7650252 982.4990000
110.2683230 -772.9671667 991.3900000
118.4295299 -772.2457062 1001.3970000
119.0507848 -773.1382169 991.7750000
128.5338429 -773.1818278 991.3050000
137.2667347 -773.7463788 982.5390000
127.8065740 -772.2428087 1002.2680000
137.3322479 -772.1500602 1000.2500000
138.7665508 -772.5972013 991.4030000
142.7230456 -771.4524038 1004.3130000
148.0909701 -771.0388439 992.7040000
148.8598161 -769.9067180 1000.2220000
149.8903249 -771.2829552 983.3290000
155.2704605 -765.4049359 1003.9650000
156.1663816 -766.6845493 990.9620000
158.5274369 -765.4903391 982.9980000
161.1319770 -760.7424570 991.9670000
161.5937769 -757.8656628 1001.7380000
165.4700220 -755.1303931 987.9870000
166.6163922 -747.1228538 1002.8120000
167.1495042 -749.6772643 993.3830000
168.8957133 -736.1451100 1004.5300000
170.1189585 -730.2350426 1000.8920000
169.0289882 -748.7611388 983.4900000
169.9644584 -739.9850157 992.9710000
171.9229873 -728.3623235 989.6450000
170.8376437 -708.6465872 1002.6880000
170.9436277 -718.8287836 999.8810000
172.4565839 -708.2595760 991.6000000
172.2221334 -720.5291095 990.5460000
171.0416119 -688.6130145 1002.2260000
171.0379971 -698.9719963 1001.9630000
172.6283373 -679.6839481 992.6010000
172.3728211 -690.3481016 992.9190000
172.7911493 -699.0023640 990.3590000
174.9679309 -679.5277695 982.6620000
174.7083095 -689.1611256 982.9230000
171.6264521 -659.3194533 1001.0290000
171.0097356 -668.2822663 1003.9580000
171.3614198 -676.1549760 1000.8350000
173.4418681 -658.2013667 990.2960000
172.9767281 -667.9496665 991.8490000
175.1664874 -668.6030079 982.8840000
171.5742000 -639.3230982 1003.2060000
171.2789999 -646.4117738 1004.4360000
171.7973677 -647.7291423 1001.1370000
172.5832607 -639.4578149 997.4160000
173.1432343 -647.5916904 993.3470000
173.8142647 -638.3108916 991.1070000
172.4341070 -609.2067203 1000.8070000
172.0734945 -616.6717497 1002.1720000
171.7513927 -627.3563081 1003.0990000
173.7326200 -610.9936529 994.1310000
172.9991804 -621.7547041 996.9000000
173.9751261 -617.5605659 992.4140000
175.1335870 -609.9678807 988.5600000
173.8735531 -629.5927905 992.0360000
176.0127507 -628.1164170 984.1490000
172.5443958 -587.2729842 1002.0830000
172.1965553 -598.7556914 1003.0830000
174.4721255 -588.4623531 992.3410000
173.8067542 -600.3859845 994.4730000
175.2186045 -599.6346400 988.8110000
172.6820506 -558.6689084 1003.9530000
172.8084851 -567.8992126 1002.3110000
172.6354206 -577.2408961 1002.4230000
175.0448822 -558.8541826 992.5820000
174.7817671 -568.8672198 992.8800000
174.7895613 -578.0882254 991.9200000
178.5968077 -569.0858762 982.3270000
173.4209087 -538.7559416 1001.7210000
173.0242586 -548.4709379 1002.9250000
175.5848257 -538.3739583 992.0400000
175.8969012 -548.6337199 990.3850000
178.4707420 -538.0745403 984.2820000
177.6927890 -555.3784244 985.2990000
173.5118523 -518.7044410 1002.4450000
173.6305279 -529.6082806 1001.2580000
175.3147368 -518.9267454 993.7130000
176.0928967 -528.8431831 990.7780000
179.0930616 -516.6026467 984.1200000
178.7458439 -528.6928772 983.9520000
173.5095315 -487.1133248 1002.2580000
173.5716373 -497.4929413 1002.0260000
173.7967948 -508.5656200 1000.8910000
176.0256846 -490.5391880 992.3100000
176.2215729 -500.0951303 991.2440000
175.9286895 -509.5447185 991.7960000
179.9071901 -487.9867305 984.2740000
180.4867030 -498.1348756 982.7030000
179.8956282 -508.6662983 983.1310000
173.4728954 -468.2698675 1003.2020000
173.0931821 -479.8786584 1004.7990000
174.3558145 -478.5374681 998.4220000
176.6707292 -468.2549006 991.8600000
176.6182073 -479.0695809 991.0440000
180.0097350 -480.9437272 984.1840000
181.7520068 -468.6864037 982.6960000
174.7738593 -438.5121298 1002.3280000
174.2339448 -448.5699676 1001.5090000
173.8216350 -458.7239409 1002.0380000
176.9534908 -448.1696985 992.9630000
177.1943398 -457.8711315 991.3460000
179.0953624 -438.7561771 990.7790000
181.7432318 -458.1892210 983.7240000
182.8138426 -447.9248997 983.4020000
175.6783944 -428.6301549 1004.3250000
177.3061330 -420.1610700 1003.7460000
177.0449079 -425.7173827 1000.9230000
178.7798326 -417.3640567 999.8910000
179.5932547 -429.0412432 992.4710000
180.7528807 -417.1742272 993.9310000
183.9405828 -429.2600304 984.8030000
185.4060972 -419.2689217 985.0070000
179.1128917 -408.2430715 1002.7440000
179.9551977 -399.4373775 1001.8930000
183.8506205 -390.4642504 993.4520000
183.3112480 -399.8835707 992.6630000
182.9708239 -409.5112765 991.0810000
186.9998789 -409.2927970 985.0560000
187.9574991 -398.7950251 986.0210000
180.2446425 -390.1659835 1002.4780000
182.1128738 -367.5920157 1001.5200000
181.7679883 -378.1866657 1000.3280000
186.8174394 -369.3537812 993.4030000
186.7756394 -380.1154803 991.3300000
189.0255372 -388.9545568 986.9290000
193.0160496 -369.2747819 987.5460000
195.6057594 -379.8056837 984.2420000
195.5188654 -390.1514240 982.6410000
181.3278425 -355.4658159 1005.7810000
183.0317763 -358.8807950 1001.4220000
185.5794261 -349.4702865 999.6030000
187.2023813 -361.0247443 994.7370000
190.1145158 -350.7455449 993.9290000
194.4056998 -359.1070509 988.6060000
185.5947114 -339.0017520 1002.1550000
189.5197579 -329.0458974 1000.9070000
196.4909206 -326.3912145 997.0200000
198.6950109 -319.1414039 998.9200000
198.5518243 -339.1802292 991.7470000
199.2664368 -330.8960984 994.0800000
190.4219531 -318.2369012 1003.5550000
191.8417619 -308.5410234 1005.6950000
196.9978043 -309.9963358 1003.0160000
198.7213434 -301.3614296 1005.2830000
172.6034041 -730.9891859 983.9730000
199.2785983 -372.5104171 984.4010000
203.5318570 -373.2286590 983.1690000
199.3198936 -348.0654510 988.7710000
198.9174672 -359.8700345 986.4200000
202.4399169 -352.2167051 987.1270000
202.6746698 -360.0413410 985.5110000
-254.7253330 -337.6319416 1006.2990000
-250.1266489 -339.3453032 1009.4260000
-248.5763653 -358.6050613 1006.5110000
-246.3518886 -347.8525404 1011.7650000
-245.2379102 -339.1183716 1014.7080000
-245.1440191 -358.9493283 1010.9580000
-251.8925363 -318.6961208 1012.4060000
-251.6709743 -328.9170739 1010.1540000
-245.2166004 -329.9542347 1016.9160000
-243.6842761 -318.1045590 1022.4110000
-242.2897614 -330.1734346 1022.2360000
-255.4097968 -300.2848201 1015.2520000
-253.6709182 -308.6619243 1013.7760000
-251.9955929 -288.4022375 1021.7560000
-251.0080887 -296.9304967 1019.8620000
-248.6668294 -309.2081224 1018.1760000
-245.1944639 -300.3643995 1024.8970000
-243.3621814 -309.5704385 1024.9760000
-253.5647160 -267.7919755 1028.4250000
-253.6694169 -272.5434462 1026.5340000
-253.7385524 -275.7111399 1025.2740000
-251.9350092 -281.1278436 1024.3390000
-246.8334520 -277.4130612 1029.8640000
-246.6550655 -285.0832891 1027.2770000
-252.9412034 -262.2872001 1029.9300000
-245.0194165 -700.3757177 1011.2440000
-244.5910389 -708.1264803 1011.8100000
-243.2874316 -699.7339716 1020.5160000
-243.6814796 -711.6194366 1015.4900000
-244.0018658 -719.9714326 1010.5550000
-242.4424948 -699.7930553 1025.4200000
-244.7465654 -678.8553282 1011.0010000
-244.8228332 -689.7515507 1012.3480000
-242.6441198 -678.7216618 1022.1750000
-242.9324111 -688.7650167 1022.2380000
-242.4394242 -691.5491879 1025.3980000
-244.4433896 -659.5103533 1009.3370000
-243.7406973 -668.9864540 1013.9270000
-242.3593570 -660.5001391 1022.2960000
-242.3014431 -668.9327204 1022.4970000
-241.3380268 -671.0390558 1029.4690000
-244.7997734 -630.8035649 1010.4560000
-243.9505924 -640.3781240 1013.8940000
-242.8216925 -629.4522572 1021.7340000
-244.0761244 -649.1547467 1011.9250000
-243.0205583 -637.4999889 1019.9030000
-242.5482137 -648.7363091 1022.1620000
-244.6549405 -610.7698669 1011.1920000
-244.4888601 -620.4510349 1011.7840000
-242.9582725 -608.7122081 1021.3870000
-242.7509508 -620.3409973 1022.5850000
-241.9495465 -608.9090528 1030.0940000
-245.5204391 -579.4522045 1011.8530000
-245.7978858 -588.5520175 1010.0250000
-246.0764451 -596.6212424 1007.0580000
-244.6475991 -590.0789770 1015.6010000
-243.7547281 -577.9697631 1022.0470000
-244.4954139 -600.0448694 1014.2150000
-243.4694492 -587.6522492 1022.7540000
-243.1340003 -599.1546683 1022.2100000
-245.0894507 -559.7703247 1009.9310000
-244.9039589 -568.6148086 1013.8750000
-243.7443596 -559.2569028 1020.2790000
-243.7625284 -564.6918747 1021.2950000
-243.0814230 -562.3917833 1025.9840000
-243.3035803 -568.6796032 1024.8750000
-243.6091906 -529.9429243 1012.2710000
-243.7298747 -540.7718847 1014.6610000
-244.1028876 -546.9950238 1013.2380000
-242.9499794 -539.4530748 1022.9630000
-243.2885194 -551.3905385 1022.4030000
-243.5134258 -508.0161921 1012.6290000
-243.4825129 -519.5013257 1012.1130000
-242.5893250 -508.3193927 1022.8830000
-242.7391787 -518.1749471 1021.3750000
-242.7433849 -529.0441305 1023.0890000
-243.8447207 -491.0928578 1011.8220000
-243.7473114 -498.7312595 1011.5160000
-242.7939220 -489.3118193 1021.9220000
-242.8323719 -498.4343592 1020.6310000
-244.6437431 -460.4444629 1011.5230000
-244.4171086 -468.7865931 1011.9990000
-242.8053234 -458.3666431 1022.7950000
-244.1036499 -479.6860093 1012.2570000
-243.0295121 -468.5397857 1021.4710000
-242.9632414 -478.9888620 1021.3800000
-244.7806960 -434.4485849 1008.0310000
-243.9557946 -438.6934674 1013.0210000
-244.4495211 -448.7645594 1012.2990000
-243.1750377 -449.2035322 1019.4950000
-242.3695355 -438.7021404 1021.7410000
-243.4187832 -408.9083724 1009.6740000
-244.4561622 -425.1054638 1007.4460000
-243.6863180 -419.8734204 1009.6200000
-242.6336670 -417.0910720 1014.0040000
-243.3638422 -427.7480975 1013.1260000
-241.9209723 -408.9920583 1015.7560000
-241.0478489 -416.6616470 1022.1170000
-241.6478145 -428.2520291 1022.6490000
-243.2657181 -389.0436603 1009.8890000
-242.9184457 -400.3053176 1011.2540000
-241.6231152 -399.4856787 1015.6480000
-240.4984486 -388.9213974 1019.9240000
-240.4443305 -399.2002111 1021.1390000
-240.5198230 -408.2790607 1022.6140000
-243.3238630 -369.6333217 1011.6910000
-242.6378306 -378.6882342 1012.1900000
-239.5173688 -360.9857843 1024.0360000
-239.5133926 -369.5589455 1023.7490000
-239.7874723 -380.1015078 1022.8720000
-241.2391651 -339.1326447 1022.2670000
-240.9281984 -349.5372818 1021.3150000
-241.3148776 -359.9268168 1018.0680000
-238.8722903 -338.3999648 1029.3630000
-238.8421746 -345.0080625 1028.8630000
-226.1115521 -772.8592298 1021.1860000
-225.1379436 -775.0635148 1012.2550000
-239.4648363 -751.4957113 1011.6830000
-238.4198230 -749.0376200 1021.4560000
-237.5270278 -747.9392226 1029.4890000
-238.0972067 -757.1970004 1008.7830000
-236.7793865 -753.9770834 1023.2400000
-234.9058709 -762.6077972 1011.6230000
-234.5725100 -760.5069337 1021.0390000
-230.2951982 -769.7979363 1009.7370000
-229.9279256 -768.1725967 1021.6310000
-228.8086665 -768.0072695 1029.7670000
-243.0057647 -729.2655571 1011.1450000
-241.1823821 -730.2842313 1021.7420000
-241.5468581 -740.3132369 1012.4040000
-239.7098484 -740.1048727 1023.8260000
-242.3923164 -710.6299537 1023.4800000
-242.3821350 -720.3042300 1019.5550000
-221.3511493 -777.2630262 1023.2880000
-221.0092884 -778.3234563 1011.6950000
-213.8106067 -781.4321837 1022.7980000
-212.7795558 -782.1699032 1013.2020000
-204.4813074 -783.1872379 1022.4700000
-204.0808428 -783.7966574 1014.2710000
-195.0479145 -784.3711621 1012.1940000
-193.8479808 -783.4105252 1023.0570000
-184.3198695 -784.1860618 1011.5310000
-182.2855958 -783.2496846 1019.5910000
-175.4350239 -783.5953985 1013.1910000
-174.4219352 -782.4683225 1022.7850000
-163.1769264 -783.0902496 1011.8150000
-162.9620909 -782.0106058 1021.7760000
-158.5339703 -781.2747033 1027.7570000
-154.1017791 -781.6417715 1022.1360000
-154.0621638 -781.2616089 1026.2180000
-152.4385585 -782.4708114 1013.0040000
-143.5139029 -781.2965033 1022.1460000
-142.0917152 -782.3613039 1009.9200000
-139.3966907 -781.6666071 1016.7690000
-134.0221431 -781.9281537 1011.9420000
-132.1910183 -780.9094049 1021.7120000
-124.4128863 -780.4308141 1022.8540000
-122.9717286 -781.5841537 1011.7820000
-114.1778231 -780.1350556 1021.0390000
-111.4616983 -780.9735655 1012.9020000
-103.0882816 -780.5145473 1012.7290000
-103.4653879 -779.4306013 1022.3470000
-94.1978184 -780.0786529 1012.0960000
-92.0163344 -778.8748932 1022.2890000
-83.2345059 -778.4314023 1023.1640000
-82.7070513 -779.3263758 1013.0410000
-73.6181129 -779.0396897 1011.8680000
-73.4847428 -778.1688719 1022.1140000
-64.2586741 -778.7839482 1010.2860000
-63.8627691 -777.8773567 1021.7160000
-58.4667289 -777.3885748 1025.8760000
-57.3484371 -778.5975278 1009.4150000
-52.0433966 -777.3916513 1023.0460000
-51.7737264 -778.0781348 1013.7170000
-43.7748535 -777.2029761 1022.0380000
-41.3448757 -777.8059516 1012.8230000
-33.5855859 -776.9401031 1021.2260000
-33.2719678 -777.6998307 1010.7170000
-22.9599003 -775.9358672 1030.2000000
-22.8944876 -777.3428575 1011.1310000
-20.6056343 -776.5776559 1020.5610000
-11.8071971 -776.2636389 1021.0340000
-11.4358092 -777.0394354 1010.4730000
-3.4353249 -776.6495713 1012.3030000
-2.3600931 -775.8666686 1022.3170000
6.3207146 -776.4105359 1011.2200000
7.3185983 -775.6643271 1020.9120000
16.4342887 -775.3434238 1021.2500000
17.1518833 -776.0351657 1010.7090000
24.6722396 -775.0583798 1021.3000000
28.0452059 -775.4676630 1012.5610000
33.2720687 -774.6873698 1021.7470000
36.0615145 -774.0243366 1030.0890000
36.5404602 -775.0883380 1011.1620000
39.5079456 -774.4968986 1020.3480000
41.6982148 -774.8906432 1008.5550000
46.0061955 -774.2385643 1019.2470000
47.5253917 -774.4249922 1011.6800000
54.9525796 -773.6351627 1021.8570000
56.8769046 -773.8238564 1012.1900000
65.6689051 -773.0643052 1021.4540000
67.5012278 -773.1523360 1012.6610000
76.4349194 -772.6372641 1011.8200000
77.6775062 -772.3281897 1021.5440000
87.5518037 -772.0523139 1011.2610000
88.8160574 -771.6054151 1022.4760000
96.5336843 -771.2208327 1020.4560000
97.8008213 -771.4638156 1013.3350000
107.9030247 -771.5126286 1009.0580000
107.8704375 -770.7314525 1020.8150000
114.8838602 -770.1101708 1028.1890000
117.5869621 -771.2926100 1011.9180000
118.4340799 -770.6180588 1020.0050000
120.7687618 -770.2740800 1024.3550000
126.2836333 -771.4576612 1011.5430000
127.3006639 -770.4892466 1022.2970000
130.6730314 -771.0318128 1016.6970000
136.6974333 -771.7668443 1007.1180000
137.5951383 -770.2828501 1022.7940000
140.1452553 -770.9293120 1013.6970000
178.4953741 -280.0544446 1029.4650000
179.3661263 -268.3475578 1030.1310000
149.6234650 -768.7772361 1011.0830000
150.2542267 -767.0680724 1020.2570000
155.7642200 -763.3182959 1012.1120000
157.7777470 -758.0338798 1022.4030000
159.5472652 -758.1455873 1012.5720000
163.4825332 -750.8533341 1013.2340000
163.1656541 -747.9160748 1022.0230000
165.5509725 -734.0176102 1029.2740000
164.9896115 -747.6506611 1011.4850000
165.9935297 -738.8131632 1019.9810000
167.1485154 -728.7041057 1022.1000000
167.2069748 -739.6949568 1011.0370000
168.6026687 -728.1792639 1012.4530000
166.7145719 -708.3602788 1029.9480000
167.2960713 -705.1049123 1025.4870000
166.3303445 -726.1979281 1030.0960000
166.9679926 -718.3693381 1027.5440000
167.9071940 -709.3248215 1021.7260000
167.9437424 -718.3353201 1020.7240000
169.4191213 -708.4611844 1012.1380000
169.3533935 -719.1636702 1011.0990000
168.0442993 -679.0656757 1021.2830000
167.7703852 -689.0037772 1022.1980000
167.4032411 -698.0101055 1024.3470000
168.8353209 -684.0961085 1016.1100000
168.0663857 -700.7119456 1020.4940000
169.8851597 -678.8595856 1010.0760000
169.6385632 -688.7224093 1011.0830000
169.0933225 -697.6952326 1014.2790000
168.5126211 -658.7638901 1020.6280000
168.1115992 -669.1291655 1021.9150000
170.1057341 -659.8787357 1010.6180000
169.6128674 -668.3319467 1012.7790000
170.0825427 -669.6288688 1009.6970000
168.1498193 -638.6355507 1024.5160000
168.6217739 -647.9421430 1020.8570000
170.2692147 -637.9727778 1011.0810000
170.4307368 -646.7013072 1009.5990000
168.9311367 -609.0409617 1021.9580000
168.8079094 -618.6447602 1021.6050000
168.6516887 -629.1504541 1021.6180000
170.7100874 -607.3118430 1010.9130000
170.3654666 -617.8023578 1011.8100000
170.0789793 -627.0027853 1012.7470000
168.0183088 -589.2951863 1029.7890000
169.5070454 -587.6450156 1020.4570000
168.9689619 -598.7375015 1022.8950000
170.6638553 -587.2437331 1013.3740000
170.5150773 -599.6786457 1012.9390000
168.2515907 -560.8431515 1030.2190000
169.4346791 -558.2884565 1023.5130000
169.6161653 -568.8388165 1021.4020000
169.1957255 -578.0338868 1023.1480000
171.1815293 -568.2144899 1012.1280000
171.3828751 -578.4665085 1009.9100000
168.5446223 -536.8551588 1030.1770000
168.7573643 -546.3421087 1028.6060000
170.0598442 -538.7685162 1021.2230000
169.7018694 -550.8118822 1022.5830000
171.6366984 -538.3956036 1011.8890000
171.2985786 -548.7071359 1013.0290000
171.4003521 -557.6450075 1011.6930000
170.0366276 -517.0810672 1022.1490000
169.5891510 -526.9208219 1024.2820000
170.5466321 -523.0050739 1019.0260000
170.6125305 -528.3416704 1018.4630000
171.8346393 -518.3335411 1011.9410000
171.6295799 -528.8638883 1012.6020000
169.0620595 -487.8679230 1030.1730000
170.6167066 -488.8447492 1020.7950000
170.1099936 -499.7609941 1023.1080000
170.2405296 -508.8753018 1021.4960000
172.0140480 -486.2509043 1011.4460000
171.5808518 -496.3021705 1014.0800000
171.4376535 -504.1272429 1014.6450000
172.5133718 -489.8906015 1007.9200000
172.1140450 -500.2459710 1010.4790000
172.0667821 -508.6200730 1010.7760000
170.2715035 -468.1923609 1022.5180000
170.2673511 -478.4300096 1023.1580000
172.0989633 -468.0775584 1011.8800000
171.9156237 -477.5518481 1012.7400000
170.8171957 -439.2579436 1021.4760000
170.1635370 -449.0070951 1022.3140000
170.6186023 -458.1681548 1019.9090000
172.9059681 -439.0331013 1010.7560000
172.2434663 -449.5394805 1011.7480000
172.1193194 -459.5291548 1011.9470000
171.9249819 -431.2717650 1020.2360000
173.9134878 -417.8728370 1021.1480000
173.9339307 -427.5007161 1013.1030000
176.0395494 -418.4766143 1010.5410000
175.5307098 -399.6482545 1021.8420000
175.2882694 -406.8569027 1020.9050000
177.0050877 -408.0806428 1012.1750000
177.8918823 -398.0079659 1010.7760000
176.5107058 -366.6533417 1021.2740000
176.0540334 -378.2015166 1022.4740000
175.8089037 -388.6167883 1022.3940000
178.0124132 -378.6801923 1012.8780000
178.9096067 -370.0357198 1010.3100000
177.8885507 -388.1497193 1012.4630000
179.5877665 -380.1206923 1006.3350000
177.1772711 -346.4696725 1021.1390000
176.5331957 -357.8450539 1022.4630000
179.5834853 -348.4859330 1011.9760000
178.8239306 -360.1508644 1012.2230000
182.0376885 -344.4544090 1006.6250000
177.4457608 -326.6459117 1023.6350000
177.5668814 -336.4109478 1021.5490000
181.9435123 -318.4345565 1013.2140000
180.7172338 -337.6340848 1011.2040000
181.8534280 -328.0948045 1011.0680000
185.7117887 -319.5083339 1007.2890000
178.3282118 -317.3234594 1022.5880000
180.2752059 -298.1388420 1021.7320000
179.8064852 -307.2932454 1020.7880000
184.0995136 -299.3144760 1014.8790000
183.3899520 -309.8344055 1013.5380000
187.2684494 -308.9735589 1008.9620000
190.1424400 -298.8957894 1009.7950000
181.5916638 -287.4265589 1021.5010000
182.4283961 -278.0267991 1022.3690000
184.7869572 -289.2111986 1016.3090000
190.6845377 -290.0395909 1011.5210000
192.6961471 -279.3924177 1013.1310000
200.2386423 -280.1074474 1010.2970000
200.7172557 -289.2901424 1008.6750000
185.1257025 -259.2653016 1024.0890000
184.5562604 -269.8314178 1021.6800000
187.4692122 -249.1472294 1024.9640000
188.7487773 -265.6267306 1018.6860000
193.8862799 -263.5052368 1016.1530000
194.4634227 -256.9719816 1018.6360000
195.7685308 -248.8877285 1021.0530000
194.4866806 -269.9141304 1013.9470000
198.6216563 -260.3250131 1015.6540000
198.7197215 -270.1760504 1012.0860000
189.5005997 -240.1381863 1026.0370000
191.6229055 -231.3055149 1027.4780000
194.0661198 -239.6307247 1024.1180000
195.8216331 -229.8934637 1025.9230000
194.2808965 -218.2670660 1029.8780000
-240.4635799 -299.3987571 1033.0480000
-240.1549646 -309.6649930 1031.3580000
-247.1154234 -267.9699890 1032.3880000
-242.2973063 -288.0916993 1032.2420000
-240.8964923 -278.6387884 1036.7870000
-239.5869065 -270.2467980 1042.1310000
-238.4941000 -280.9247392 1041.9640000
-250.8308127 -239.6477249 1034.7700000
-250.1812697 -246.4863633 1034.3300000
-248.5607686 -257.4164790 1033.7950000
-244.1427188 -250.1155419 1039.5200000
-242.8444866 -253.9564783 1040.1410000
-240.3734224 -253.6834600 1044.2190000
-239.6148104 -260.5679243 1044.5190000
-237.9460148 -250.1211457 1050.5900000
-236.4001009 -258.6486959 1053.8660000
-251.0208243 -230.9968974 1036.7010000
-250.6457844 -225.9919671 1038.2240000
-250.0837199 -218.4844869 1040.5100000
-250.9253162 -235.3222962 1035.7350000
-245.6732969 -217.8726521 1044.4930000
-245.3798031 -228.8712171 1042.4830000
-244.5177979 -239.1368541 1041.6100000
-241.8161002 -218.2052266 1049.4480000
-241.7067053 -228.2669675 1047.4260000
-239.1741458 -220.6061686 1053.3540000
-238.4250310 -229.2607063 1053.6510000
-237.9849620 -239.0519549 1052.5250000
-249.3907432 -196.2745242 1048.6670000
-249.7397641 -203.0003615 1045.6140000
-249.5766814 -208.9828105 1043.5000000
-246.8208902 -210.0998659 1045.7280000
-243.6995491 -201.1295484 1052.1060000
-242.1508997 -209.0732271 1051.6030000
-249.7905864 -187.2125580 1052.1330000
-240.8651509 -678.3398263 1033.1210000
-241.1988120 -660.9772569 1031.9870000
-240.4621870 -655.8762154 1041.3630000
-240.2309998 -661.2574506 1042.1040000
-239.3447673 -652.0959541 1053.1370000
-240.5304781 -672.0628815 1035.4800000
-241.6427377 -629.9958210 1031.4610000
-241.5809146 -639.2326340 1031.1690000
-240.5847231 -629.0864091 1041.3160000
-241.3361803 -648.8641677 1033.0880000
-240.4528287 -639.7295357 1041.7510000
-239.3761413 -629.6220202 1052.4530000
-240.2946714 -649.9254048 1043.7980000
-239.4502345 -639.9710615 1051.3710000
-239.1697214 -642.8406192 1054.0310000
-241.0952327 -609.3787910 1039.9990000
-241.6713522 -619.5243169 1032.2110000
-240.6193310 -620.4208862 1042.4760000
-239.8135911 -612.2241249 1052.1890000
-239.5418488 -620.9533446 1052.4020000
-242.2837782 -581.2473555 1031.3820000
-241.9594968 -590.9024956 1032.6470000
-241.1304751 -581.4553124 1041.2110000
-241.9748350 -597.9455823 1031.8140000
-241.0161928 -590.6587033 1041.7260000
-239.9632068 -579.3275538 1052.3110000
-241.0613128 -601.6112357 1041.0810000
-240.0638411 -590.4145412 1051.6820000
-240.1193179 -599.9669405 1051.0560000
-242.4201699 -560.4902781 1031.0130000
-242.2668909 -569.9961260 1032.4250000
-241.1764387 -560.2795230 1041.3720000
-241.1506464 -569.5298555 1041.5680000
-239.9562684 -559.1298372 1051.7490000
-239.8513872 -569.0984363 1052.9610000
-241.9523178 -530.8627426 1032.4270000
-242.1244824 -538.0412194 1031.6000000
-241.8894765 -542.1636546 1034.3060000
-242.1912830 -549.2177852 1032.1020000
-240.7454559 -530.2474301 1043.9300000
-241.0231088 -538.1603375 1041.9190000
-241.1047361 -548.4737665 1041.7590000
-239.8664040 -539.7388704 1051.7190000
-239.8800352 -548.3057881 1052.0030000
-241.8247800 -510.3165898 1031.8770000
-241.8876369 -520.0318710 1031.7680000
-240.6870738 -508.8122877 1042.8360000
-240.9368158 -516.7131126 1041.2760000
-241.2682554 -526.1549925 1038.9450000
-240.7266408 -524.1007697 1043.7560000
-239.4416428 -510.0251190 1053.0790000
-239.8318638 -521.0387272 1050.9500000
-239.7660967 -526.7642620 1051.8570000
-241.6973060 -489.4416316 1032.3040000
-241.9311111 -498.5194352 1030.2330000
-240.5174650 -487.9081977 1042.1440000
-240.7763221 -500.9138218 1041.2330000
-239.4174667 -492.0179409 1051.1160000
-239.6846346 -499.9385985 1050.1730000
-239.8590233 -505.3425976 1049.4180000
-241.2449599 -460.3082181 1033.4200000
-241.7275276 -471.6962967 1031.3160000
-241.7324051 -479.9229963 1031.7550000
-239.7885857 -460.5544093 1043.2690000
-240.3749047 -470.5017410 1041.1270000
-240.3050624 -478.7637388 1042.8160000
-238.2296416 -459.3051126 1053.3680000
-238.8924005 -470.1162161 1051.3120000
-239.2026915 -480.9329203 1051.1090000
-241.3601857 -448.4232291 1030.2520000
-240.4267509 -437.9989492 1033.2860000
-238.9722723 -438.7883314 1042.9090000
-239.7814752 -450.3891433 1040.9030000
-237.7375206 -438.1469008 1051.0870000
-238.0926500 -449.9488773 1051.9340000
-239.5819188 -418.6778164 1031.9200000
-240.1510521 -429.8272752 1032.3790000
-238.1122006 -418.6041594 1042.1540000
-238.4736268 -429.0052842 1043.1850000
-236.7535130 -409.5959932 1050.0290000
-236.7937378 -417.7690965 1052.0330000
-237.2536606 -429.4354325 1051.9570000
-238.5942041 -388.8410350 1031.1130000
-238.7332975 -399.7468985 1031.7010000
-238.9846553 -408.4736225 1032.2720000
-237.1698138 -391.5229284 1042.6560000
-237.5331797 -399.6724331 1040.8320000
-237.7690282 -408.9084797 1041.5320000
-236.0232586 -388.9315957 1053.2330000
-236.2133633 -398.9326969 1052.4940000
-237.7814851 -370.8679459 1034.0160000
-238.1974802 -378.2218412 1032.3470000
-237.0219436 -370.1842634 1040.7240000
-237.0512959 -379.5780988 1041.9440000
-236.1238569 -370.2430540 1052.0520000
-236.0527922 -378.9893167 1052.7140000
-237.8030564 -340.2258987 1034.9770000
-238.1799899 -350.7341026 1032.1190000
-236.7575052 -340.1254880 1042.0110000
-237.9292970 -360.6818222 1032.8510000
-236.9099562 -349.3157406 1041.3050000
-235.6918023 -337.3141795 1050.9350000
-236.7438783 -358.2084879 1042.5720000
-235.7115852 -348.3631142 1052.9810000
-235.8759507 -357.6807459 1052.9430000
-239.1259234 -320.9681091 1031.4880000
-238.3233946 -329.3031945 1033.0650000
-237.1633378 -319.0786094 1039.0290000
-236.2252468 -318.2499287 1044.2750000
-236.6286991 -329.9401621 1042.0840000
-235.4261571 -320.1545099 1051.4720000
-235.3176458 -328.7953278 1053.3370000
-237.6840011 -289.6389763 1042.5460000
-237.3595178 -299.1622093 1041.4710000
-236.9505818 -309.1836469 1041.6980000
-235.5477688 -290.1689834 1052.1620000
-235.5050198 -298.8327700 1051.2380000
-235.4098466 -309.6283063 1051.9560000
-236.1877235 -270.7642736 1051.9830000
-236.1933578 -280.0769658 1050.1000000
-225.0007701 -772.3133844 1031.3070000
-235.6188983 -749.8389546 1041.8350000
-235.6305679 -754.5215472 1031.0320000
-232.4627910 -761.7601530 1032.0630000
-231.3015234 -761.3381309 1042.6320000
-230.5998347 -760.3205996 1051.8960000
-224.3319946 -771.1070974 1042.9810000
-223.2318292 -770.7990907 1053.0730000
-239.6811604 -730.2187918 1032.8540000
-238.4066742 -731.5178600 1042.7320000
-237.6078777 -729.0686149 1051.8430000
-238.4604892 -741.5625744 1031.3390000
-237.5730735 -740.1540463 1040.6650000
-236.6256878 -738.0169267 1052.2690000
-235.6294181 -745.5166920 1050.1640000
-241.2753152 -700.4189984 1032.4910000
-240.8289800 -708.6010643 1034.4990000
-239.8188835 -701.1804488 1041.9910000
-240.5835749 -720.7317326 1031.9790000
-239.3941599 -711.4921949 1044.6590000
-238.2587819 -699.7999131 1051.9690000
-239.3094179 -721.6197765 1042.1660000
-238.0202207 -709.5914058 1054.1000000
-238.2709607 -719.5421546 1051.4780000
-241.3009448 -689.7041097 1031.9810000
-239.7431921 -680.3149013 1041.5700000
-239.5369313 -691.7581646 1043.2120000
-238.4499365 -680.7291233 1052.1080000
-238.2683785 -687.6085461 1051.6920000
-239.3969570 -659.9384174 1051.7850000
-239.9133341 -668.0110613 1042.5740000
-238.9499205 -669.2573014 1052.5700000
-219.7874372 -777.1067245 1033.0740000
-213.9064259 -777.9570344 1052.0470000
-213.6128443 -779.4641849 1042.0150000
-212.8549130 -781.3265923 1032.3780000
-203.6325354 -782.7614080 1031.7340000
-203.4240520 -780.4823995 1053.0760000
-201.1067001 -781.7481330 1042.2830000
-194.2914073 -781.6092054 1041.7180000
-193.3579628 -780.6319386 1051.0930000
-192.7690452 -782.5316471 1031.6180000
-184.4726749 -780.9094209 1043.0820000
-182.8446822 -781.9555322 1031.8690000
-182.0391803 -779.9408134 1051.9440000
-175.1381540 -779.4359749 1053.9870000
-174.9824715 -781.5389576 1031.9140000
-174.3573440 -780.5411336 1041.8480000
-170.1943588 -779.8839279 1046.9520000
-165.3647855 -781.1338666 1031.8730000
-163.8593703 -779.2021736 1051.5270000
-162.9596345 -780.1261868 1041.5020000
-160.1243117 -780.8226655 1033.1810000
-155.1105978 -778.6651489 1053.4640000
-154.7902160 -779.7030259 1042.5370000
-153.4623926 -780.6980740 1031.9680000
-144.7986976 -778.4389197 1051.0660000
-144.3090203 -780.2956006 1032.3830000
-143.0225288 -779.3299895 1041.1140000
