
86.0780743 -533.7470000 970.7939281
90.7117112 -536.9500000 964.9472191
94.7366663 -532.7300000 969.0509864
94.7271534 -530.2990000 978.0478204
95.8931266 -540.1010000 962.7070851
97.4309000 -565.2710000 961.8190350
106.6479575 -549.6220000 961.0970620
107.4033171 -559.8370000 961.0168075
115.3321028 -548.3690000 960.4411617
115.6144201 -558.7640000 960.3945359
103.0353988 -528.8610000 978.3764175
103.9943642 -530.5490000 970.3297629
104.3044345 -540.5950000 962.5762226
105.9940353 -534.2280000 965.0202887
113.5573753 -529.7470000 969.7669004
115.0043739 -537.3960000 962.8714155
126.1174458 -547.8280000 959.6142057
126.4311846 -559.5010000 959.8575018
134.9067927 -556.0040000 959.3722010
136.5240205 -546.2270000 959.1554608
145.7894136 -555.1720000 958.9179192
123.8324520 -536.2170000 962.4873761
123.7757366 -529.1200000 970.0014663
123.5784604 -526.4260000 979.7126300
133.8612026 -528.7710000 968.0528053
134.1667716 -525.1090000 979.5337384
135.0161571 -536.1930000 960.8495701
142.9193018 -525.8270000 970.2686780
143.9921110 -534.8470000 960.5104170
144.9774103 -543.8050000 958.7546074
145.0375618 -528.4680000 964.1360261
145.9019917 -244.1270000 980.9013993
142.9064850 -214.8030000 980.7669400
145.9791041 -215.8360000 977.9183957
145.8371884 -205.0760000 977.3784957
142.1482140 -185.7690000 979.6977244
143.7716710 -173.5350000 978.0206469
144.6404108 -163.9510000 977.9273558
145.0080976 -182.8550000 977.1036985
144.5091250 -145.0950000 980.0376423
145.1780273 -154.9650000 978.6366721
145.1987842 -135.0990000 980.6709125
155.7670809 -544.5100000 958.0297997
156.0394589 -554.1310000 958.0189260
165.7515468 -551.4680000 957.8370965
166.9065698 -545.7120000 957.8513364
150.8668591 -520.9010000 980.5512444
152.4469846 -522.6860000 969.7178949
154.1961880 -534.5780000 958.9219843
154.9301133 -527.0280000 961.7231561
158.1882188 -519.4320000 971.4267685
163.6075934 -523.1220000 961.3981947
164.5031352 -534.3000000 958.0274822
163.8363040 -513.7780000 971.5356555
165.7013742 -508.9670000 977.8606447
166.5917022 -517.0170000 962.6937535
168.1423428 -502.9320000 980.6825088
169.9458871 -503.8700000 971.4405531
172.4922040 -513.0690000 961.4147723
172.3157270 -483.0930000 980.3786512
169.4920308 -444.9790000 980.8649020
170.4615448 -454.8120000 981.1253702
171.2817532 -464.5150000 981.4719595
172.2342579 -443.1800000 973.7102334
172.4971770 -453.0470000 975.2066286
169.8706185 -422.7150000 974.2385416
170.7631691 -436.6750000 975.1842299
163.7003615 -395.9270000 980.7382504
164.9827200 -405.0700000 979.8245055
167.4849660 -393.7120000 973.3918024
167.9938952 -405.0050000 974.2034027
168.8931991 -414.1670000 974.2799700
171.8088495 -403.9430000 969.6327003
162.8062911 -385.2490000 980.0416076
164.7795261 -375.1920000 974.7484471
166.9544128 -383.5950000 972.9857750
169.3402688 -373.0940000 969.9281816
170.7372575 -382.1900000 969.1064689
171.5378047 -390.6880000 969.1724474
158.5539484 -345.2600000 979.8462273
158.9437875 -353.8330000 980.6597109
160.3938009 -364.2700000 980.3725694
163.2580784 -352.0990000 974.1344098
163.4828305 -345.4640000 973.2299832
164.7730547 -364.1890000 973.7349304
169.5603630 -354.2010000 969.0106286
170.7115505 -344.0170000 968.2545041
170.7860620 -363.2300000 968.5415529
155.8329715 -324.7450000 980.2681451
156.9204989 -335.1620000 980.3386374
161.7627670 -324.5170000 973.0188849
163.9157811 -335.4220000 971.9768871
169.3874549 -323.3400000 968.8520480
170.7690594 -332.3730000 968.2740162
153.3754628 -293.0720000 978.9183524
153.9800613 -304.3400000 979.6674357
154.2767983 -314.6110000 980.8656139
159.1676506 -303.8680000 973.7151912
159.7391913 -313.5970000 973.9312265
159.8924946 -294.3500000 972.6227911
166.7473212 -304.1310000 969.7012284
166.8642515 -291.8720000 969.4762122
167.6812546 -313.9960000 969.4485894
172.1463270 -292.0950000 968.1290191
152.0146716 -274.7090000 977.7083164
152.4946714 -285.0150000 978.7842500
156.5718516 -275.3570000 974.0173447
158.0060324 -285.8320000 973.7617996
164.0328301 -282.5520000 970.6394928
164.7798947 -271.7720000 970.4939988
171.0588918 -274.0560000 968.9718422
171.5970083 -283.2150000 968.6688246
150.4300000 -254.2860000 977.0256006
151.0287563 -245.5180000 975.9349005
151.3463963 -264.4070000 977.2516665
155.6043316 -243.9330000 973.1077063
155.6277756 -253.0080000 973.5494713
156.5665175 -263.2390000 973.4570130
163.0321485 -243.2080000 970.4232239
163.2657887 -263.5990000 970.7074373
165.4091761 -254.0960000 969.8802612
169.9494129 -263.6800000 969.0138138
148.3407404 -224.1140000 976.5497471
149.0619729 -235.6470000 976.8177186
150.7543111 -214.6360000 974.6112627
153.5413026 -224.0730000 973.4638245
154.2635214 -234.9510000 973.4267172
160.7414988 -222.7240000 971.0674825
161.2736109 -232.6960000 970.9173601
147.3076031 -193.7300000 975.7774381
151.2053932 -193.7860000 973.8117967
151.7868748 -204.5330000 973.8010145
157.8005335 -194.1770000 971.6006797
159.3903992 -212.5980000 971.3592148
159.7103809 -203.2630000 971.0584879
148.8858320 -174.8470000 974.4522972
149.2916929 -184.4360000 974.4629250
155.7229672 -165.0010000 973.6580003
155.8057987 -183.7450000 972.1756607
155.9915814 -175.6100000 972.4156061
150.6867650 -160.9420000 975.0896585
154.0084739 -143.8960000 977.2453494
155.1347056 -152.1580000 975.9523877
156.6200484 -156.7980000 974.8508920
151.3853405 -125.4290000 979.9666163
153.2051167 -134.5250000 978.4327269
173.9776256 -525.0980000 958.2855838
175.0284240 -543.3320000 958.1160324
176.0741930 -534.2320000 957.9093367
182.2346839 -542.0070000 958.6588563
184.2228483 -524.3250000 958.3347894
185.1416040 -533.9180000 958.6999647
190.5483548 -530.4790000 959.2386816
194.5115150 -522.9840000 959.2844407
174.8638507 -498.2490000 966.2345064
175.7182116 -505.8340000 962.3735479
181.3093101 -501.1320000 960.6093013
184.8493766 -514.2230000 958.3992121
190.8223785 -503.4900000 958.9357509
195.8663713 -512.3190000 959.1548623
197.0273566 -493.8730000 959.7054420
197.9765906 -500.8830000 959.1741080
174.1037676 -491.4000000 971.2703354
174.4197490 -472.6280000 973.1852630
174.4854202 -481.3880000 972.8548689
176.4173559 -482.9340000 968.7950499
177.4067199 -474.5150000 967.9536601
180.0294560 -491.8660000 963.1846811
182.1066821 -473.2090000 963.7762593
182.2370051 -483.6690000 962.9633922
191.3054247 -492.1640000 959.9717506
191.3562817 -471.8160000 960.6273065
191.4888859 -482.3290000 960.5677572
174.0623561 -465.0800000 973.4630028
175.4405492 -452.6920000 970.1119313
175.5303257 -462.8970000 970.6564680
179.9363324 -463.3050000 965.6330824
180.4952842 -442.8070000 964.7254030
181.1679292 -454.4800000 964.5949661
188.3611778 -451.6770000 961.1650881
189.6719657 -461.4460000 960.9993437
174.3092732 -421.6420000 968.6178060
174.6302372 -432.3650000 969.1964061
175.9379293 -442.0580000 968.6904641
180.2624407 -423.6010000 964.2961608
180.4715163 -431.7490000 964.2196075
184.7076455 -422.3210000 962.3218461
184.7850345 -431.0100000 962.0787887
186.3070509 -441.5240000 961.6014668
173.8154914 -411.3020000 968.3737966
176.3863565 -393.2450000 966.0823088
176.8558389 -402.5690000 966.1846335
178.8685246 -413.3360000 965.0769399
182.5218001 -392.3960000 963.9681916
183.1361341 -412.9430000 963.3140488
184.8559112 -402.6580000 963.3450779
175.7380862 -384.0920000 966.1223528
175.7698214 -372.9080000 965.7890693
180.9512486 -372.5730000 964.0451057
182.5514215 -382.6980000 963.5628280
175.1960788 -363.4620000 966.0391362
175.4889325 -348.2870000 965.8957531
177.2222924 -343.7250000 965.7900909
178.1079424 -352.9730000 965.0510213
179.6822043 -362.5080000 964.3739987
175.6469266 -323.2910000 967.0822955
176.3366161 -334.4770000 966.5301602
173.6574044 -301.6870000 967.6874232
175.0652227 -312.6680000 967.4071796
-289.3377623 -296.4600000 971.9090693
-286.3112108 -307.4620000 971.6602099
-294.9119369 -266.7770000 971.3079484
-293.9307195 -276.0960000 972.1529233
-292.4784610 -284.7890000 972.5440730
-291.1328832 -289.7910000 972.2722030
-288.2709073 -267.6100000 976.4745608
-286.4229233 -277.8500000 977.2251926
-295.5307855 -247.8780000 971.0266525
-295.3090763 -258.1710000 970.3912384
-290.4601436 -247.5450000 976.7223382
-289.5019616 -258.5140000 976.4223177
-300.7647106 -216.9240000 969.8092271
-298.9639267 -227.7090000 970.1084687
-297.5811829 -235.6420000 970.4037659
-297.0136877 -218.3810000 973.9068216
-296.5121959 -228.2970000 972.7485522
-295.0626142 -237.2480000 972.7835098
-292.3957525 -228.1390000 978.0191142
-292.4163367 -220.5420000 979.9512375
-290.6068416 -236.9480000 978.6571611
-289.7652118 -217.6650000 986.3608323
-287.7167443 -226.8850000 988.1270601
-287.0428205 -236.2880000 987.1073520
-303.1787934 -201.8310000 971.6526655
-303.1854065 -188.7880000 976.6422022
-301.5888250 -209.6380000 970.9870579
-301.0344578 -198.7100000 974.6858371
-298.5504535 -208.1770000 974.4507802
-294.9970660 -200.3920000 982.0463998
-294.7821397 -209.3750000 979.4161246
-292.3868797 -197.5960000 988.4149089
-291.1670861 -208.1650000 986.8342977
-304.8547469 -180.8710000 980.1096922
-304.6018223 -168.7640000 987.2977761
-303.0673587 -176.8900000 984.0148187
-299.3292440 -167.9450000 991.6232784
-297.1942249 -178.9350000 988.7471811
-295.1869286 -187.6730000 987.4632860
-308.4301588 -148.0780000 991.1188714
-306.9594250 -159.0360000 989.5438310
-266.3133342 -496.7340000 972.3469286
-265.0198858 -506.3330000 972.1557216
-261.6745425 -507.4550000 973.1796434
-268.9625748 -476.8890000 972.5506494
-267.6047833 -487.1350000 972.5381880
-264.3903482 -476.7640000 972.9074586
-264.3551079 -493.3380000 973.4335614
-271.2239177 -447.0050000 972.1903309
-270.0577562 -458.0450000 972.0848213
-269.3766132 -465.4670000 972.1646789
-262.6629549 -465.1440000 970.8139591
-273.8169271 -423.2120000 972.5005601
-273.4844407 -417.4540000 972.0661147
-271.3618723 -436.2710000 971.7665744
-267.8459516 -418.5830000 971.8156273
-267.5861758 -427.1730000 970.3759341
-265.0347198 -436.9570000 970.3537158
-262.8844680 -424.9000000 978.4327713
-274.4781020 -397.1560000 971.6199508
-273.5498081 -409.4230000 971.6972772
-269.2984783 -405.7040000 971.5875264
-269.2143239 -398.1670000 971.5827277
-266.6818471 -396.6150000 978.3593424
-265.5095469 -408.4710000 978.3250179
-265.0146103 -396.4580000 988.0753150
-263.8776535 -415.8180000 980.0313206
-263.4600772 -407.8960000 986.3944319
-262.5435422 -403.1190000 993.5678822
-261.9544755 -408.5020000 991.3955577
-261.5504464 -416.4510000 987.4267740
-278.5366136 -369.9100000 972.4650009
-275.6732601 -385.1510000 971.8777536
-274.9573256 -380.7390000 971.6604201
-273.8502554 -366.7330000 971.0992075
-272.0056027 -377.4220000 971.5186386
-268.2598914 -374.7090000 979.4864202
-268.0209656 -390.9080000 971.2408490
-267.7608393 -384.8810000 977.7718964
-267.9779357 -366.5950000 986.7883031
-266.7997566 -376.1930000 989.8912076
-266.2589853 -384.5000000 988.7609760
-279.7234409 -346.0300000 972.2518604
-278.4661797 -356.5130000 972.1437346
-275.7906631 -346.6890000 972.3118290
-273.2445715 -359.0240000 972.9146845
-271.7427491 -346.0440000 977.9837347
-270.2701670 -356.2480000 978.2863861
-269.5534393 -366.1070000 977.6949452
-269.3776858 -346.2940000 990.6569877
-268.6477657 -356.8580000 988.3393005
-284.1512521 -315.9840000 972.0338791
-282.3831804 -326.4790000 972.4362997
-281.5090611 -336.3500000 972.4431839
-276.4487537 -315.7170000 979.1829568
-276.0693269 -335.0230000 972.3335419
-275.0282077 -327.8900000 977.0414085
-273.9199910 -315.9450000 988.3552952
-272.6059064 -338.0480000 978.3222559
-272.6298045 -325.0530000 986.3403779
-270.7926164 -335.7710000 988.2291171
-283.0014894 -295.3510000 976.7185817
-281.2378260 -304.8260000 975.9904995
-280.3737420 -315.1350000 974.2795323
-278.7998919 -297.8750000 981.9843712
-277.6055856 -308.9790000 980.2310336
-277.0941921 -297.0140000 989.0854545
-276.0728486 -306.3430000 986.1441823
-285.7169828 -287.0060000 976.0142570
-283.1353445 -269.2770000 985.3830469
-282.3488549 -266.7040000 990.0352290
-281.8085227 -282.4740000 982.8859233
-281.6818363 -277.8520000 985.2680559
-280.5528239 -276.9740000 990.4013690
-279.5092864 -286.1490000 987.7967931
-285.7569061 -246.8270000 987.2420594
-284.6317647 -256.1110000 987.4805939
-285.6887031 -233.1560000 993.0418322
-248.1439364 -545.8240000 971.7673494
-240.8610624 -552.8950000 975.4202446
-239.5957922 -558.5480000 973.1725953
-239.4054282 -548.1210000 983.7812137
-237.3912801 -556.2340000 979.7525575
-236.2072203 -567.4290000 971.2086247
-249.6938392 -536.2220000 973.6534240
-249.6974795 -525.0420000 978.6440389
-245.4171278 -535.3480000 979.7944796
-245.1309045 -524.7390000 988.1558373
-243.3581578 -531.9590000 987.0808740
-242.4669383 -544.2850000 978.9854293
-241.7680720 -534.1370000 990.7657604
-239.1900920 -544.1740000 990.1890464
-260.4967934 -516.7960000 971.7529844
-258.9073517 -495.4710000 976.1500979
-257.3144007 -505.6840000 975.5615948
-255.6018325 -513.7720000 975.1802940
-253.3530684 -494.2390000 982.4006340
-252.7783793 -503.8950000 980.9301737
-251.0530937 -513.9320000 980.6362357
-250.0925429 -495.6010000 989.8725450
-249.3848440 -504.8560000 988.0214361
-247.8865649 -515.7650000 986.4641228
-260.1974203 -486.1580000 975.8302182
-259.5852063 -476.8790000 975.8682572
-255.8982825 -473.7170000 980.0452009
-254.6755502 -484.5490000 981.4466886
-252.8582644 -476.0550000 987.0751883
-251.7559754 -485.3150000 988.1864237
-259.9839250 -445.1970000 976.7691286
-259.3477796 -466.6590000 974.5180096
-258.4941238 -455.9290000 975.7647829
-258.3297234 -447.8560000 980.9088491
-257.1194096 -452.9980000 981.4857292
-256.4875731 -445.3320000 990.0191929
-255.7082846 -464.4980000 981.3466204
-254.9890629 -454.2990000 989.0260790
-253.0021212 -465.5280000 990.4295720
-260.7755928 -436.6020000 979.6493922
-260.3410370 -417.7430000 991.1707156
-259.6802662 -425.3490000 989.5454556
-258.4681253 -434.7680000 989.4031370
-225.2756825 -577.0040000 971.8660043
-224.4886188 -573.8260000 978.7119532
-223.8583165 -571.9870000 987.9916325
-217.2959113 -576.8590000 990.7743698
-213.0920192 -581.2500000 979.8696781
-211.5393682 -580.1810000 989.8357369
-235.5574647 -554.5540000 990.5182503
-233.1118428 -564.1540000 978.7222270
-231.9137362 -562.0180000 988.8190497
-229.0036684 -568.2980000 981.2906466
-228.2989772 -567.1760000 988.4935615
-203.3721177 -584.1770000 981.7197494
-202.4278420 -585.7810000 974.8070989
-201.1507388 -583.1790000 991.1701368
-194.3353931 -584.8870000 980.5879154
-193.4780084 -583.2720000 992.1213114
-183.7046410 -583.3450000 981.0803648
-183.6566169 -582.3190000 990.5158553
-182.7235840 -584.4120000 974.4057587
-173.9849280 -580.6510000 992.2206148
-173.0715433 -581.5950000 980.7956093
-163.8338229 -578.6950000 993.3427242
-163.2879061 -579.7920000 982.1981957
-152.6815552 -576.6800000 992.1032318
-151.2316742 -577.6560000 982.0797505
-144.1784369 -574.8970000 992.7830505
-142.1347092 -576.2260000 979.7170716
-134.6553536 -574.4980000 981.0353101
-134.2555347 -572.9900000 992.3016368
-126.2569534 -571.5820000 991.3106757
-122.9077054 -571.7620000 983.2195761
-120.8549376 -570.6110000 991.6481996
-116.6814323 -571.0820000 978.7370249
-112.7850682 -569.9770000 983.4996519
-114.8292745 -569.4620000 993.4055353
-105.8178127 -567.9170000 993.8305735
-103.5079549 -568.4490000 984.3808003
-101.4654326 -569.0430000 975.2421357
-96.2653312 -566.2110000 993.2954449
-93.7245939 -568.0140000 975.3037884
-93.3620775 -567.0060000 982.6808059
-85.9036279 -563.9480000 994.7221716
-84.1023467 -565.1240000 984.0156548
-75.4406243 -561.8460000 993.9077821
-73.7584636 -563.1930000 982.2798313
-66.6138084 -561.2230000 984.9727794
-65.0502185 -559.7260000 993.8487509
-55.5953692 -558.9260000 984.6571003
-54.3464728 -557.5310000 994.7702581
-45.4382954 -556.8110000 984.8930623
-45.1768579 -555.8240000 994.6112362
-36.5878483 -555.0840000 984.6246481
-36.4567629 -553.9700000 997.7065623
-31.9433517 -553.7700000 989.9830630
-25.6077688 -553.0500000 984.6790917
-25.2337942 -552.1590000 995.2515041
-22.7959052 -553.1490000 978.7616699
-14.6569023 -550.8760000 987.8798488
-14.2566204 -551.5840000 980.0506441
-14.5560870 -550.1670000 996.7395238
-5.6970140 -549.6340000 985.0064067
-5.6178178 -548.7260000 995.3640291
4.4962766 -546.9310000 995.5348437
5.1475329 -547.6280000 984.7722035
13.7778164 -545.3180000 994.1993485
15.0575666 -545.5190000 986.0390521
22.8668222 -543.8480000 986.0894919
23.7700333 -543.2380000 995.8804903
32.9359640 -541.6610000 987.5185610
34.2056667 -541.0330000 997.9793826
42.3439690 -539.6230000 988.6042059
45.3778189 -538.7400000 996.9164712
50.4440258 -538.0150000 983.6005260
52.5566759 -537.1820000 997.8907256
54.5556642 -536.9690000 990.0363615
56.1579223 -537.0020000 979.1485728
63.1907381 -535.7260000 979.4157620
64.0459009 -535.0860000 987.5309284
64.3077461 -534.6350000 999.4018506
72.5106203 -533.4580000 987.6715571
74.1098535 -532.6320000 998.8002337
82.3530855 -531.4210000 989.7309085
82.1176702 -530.9910000 999.4850886
83.4246089 -532.0930000 980.4037616
90.7363506 -529.4690000 996.8978127
93.8007302 -529.4140000 988.9393017
102.7053620 -527.2500000 999.3079508
104.5073397 -527.7130000 988.9415688
112.3032859 -525.7990000 998.9780821
113.2109722 -527.4550000 980.1303840
115.8300982 -526.2170000 989.0990180
123.5068481 -524.3110000 999.3324787
124.5313793 -525.1180000 989.7370096
132.7561887 -522.9540000 1000.4719887
133.9307838 -523.7930000 989.5389895
142.2241055 -521.4900000 998.7272319
142.9065981 -523.1030000 981.0300331
143.9660443 -521.7380000 989.9278152
145.1908970 -294.9880000 1001.1807342
146.2931548 -305.1270000 1002.2549561
141.3941032 -265.4620000 1000.5501297
143.1190970 -276.2360000 999.4268998
143.4639182 -265.4330000 991.8743381
144.2171776 -285.3180000 999.9348183
145.7494667 -275.1380000 989.0181881
146.5847410 -284.6410000 990.3174983
138.4060944 -244.4630000 1000.0147293
140.2586567 -255.3900000 998.9478581
141.7169819 -246.6710000 989.3277360
142.7737460 -256.0630000 989.9236031
146.8240229 -254.6330000 981.3706961
134.0591516 -215.5570000 1001.0252858
135.3114058 -227.0980000 1002.6746312
136.5529417 -225.5970000 996.3289563
136.8410533 -234.2000000 1000.1868202
137.5507459 -215.0970000 989.7788313
139.0830646 -225.8070000 989.0226836
140.1140885 -237.2410000 990.3341220
142.9080746 -227.1820000 982.2724975
143.8200649 -234.1660000 982.3994141
132.0200475 -195.9550000 999.2452984
133.0613930 -206.0620000 999.8187541
134.9016612 -195.1780000 990.7788290
136.5859813 -204.7460000 989.2223860
140.9425613 -194.1030000 981.3877432
141.3545692 -204.4150000 981.7366479
130.4906701 -176.0110000 1001.9902045
130.8959547 -167.3960000 1001.4116154
131.0793688 -185.9230000 1000.0229407
131.5214275 -172.9360000 998.6130294
132.0635274 -164.4210000 997.5848675
134.1617453 -163.9560000 991.6827700
134.7682974 -175.8690000 990.2561588
135.7268565 -185.5570000 988.6046850
139.3242151 -175.4690000 982.7168353
139.3262391 -165.3700000 982.9069534
130.5823703 -146.5090000 999.5197584
130.9936047 -155.3430000 1000.3948231
134.2355522 -146.4780000 990.3922598
135.3331831 -156.0570000 988.8544655
138.8676032 -144.7400000 983.8802813
139.4632495 -155.2680000 982.9465535
127.3029883 -127.4400000 1003.8463968
128.1343123 -114.6840000 999.0315084
129.3556359 -125.2200000 997.8890875
129.5138368 -137.2910000 1000.0609729
133.2786548 -115.7600000 991.0634411
133.3875750 -137.0780000 991.1443201
134.8499021 -126.4180000 989.0498816
138.4783264 -134.8460000 984.7643942
139.5694242 -114.7950000 985.3861688
143.7458300 -124.8470000 982.2164082
146.3228616 -117.0970000 982.4399436
124.5739011 -91.7919000 1004.0050120
125.4842448 -102.7920000 1003.2015667
127.7893372 -105.9310000 998.9114369
129.0047884 -96.2538000 997.1146380
132.4193839 -107.4600000 992.3613928
133.8403169 -96.8690000 991.5803209
139.4461021 -104.5310000 986.4282977
142.7098198 -92.8953000 986.6728157
144.0833883 -104.6380000 984.3769848
146.4431707 -96.5552000 985.1420189
127.4359972 -85.8888000 999.6074260
129.1753691 -64.6417000 1001.0294448
129.9190094 -75.4719000 998.4170158
136.5451299 -71.8440000 994.7171995
137.6241900 -64.3491000 996.6391046
140.0265041 -75.9054000 991.8833602
140.5820912 -84.2095000 989.5761132
129.1186911 -54.8391000 1003.1556897
134.5075508 -55.5387000 1000.6338894
134.9003407 -46.7420000 1002.9009484
147.3376188 -520.0160000 1002.9385312
152.9263288 -518.8480000 991.4859021
153.3043073 -517.6060000 999.0173772
155.0149488 -518.8420000 982.1683829
158.8871440 -512.2210000 1002.9168551
160.3370116 -513.3760000 989.9523656
162.7326041 -511.8640000 982.0533681
164.3622364 -506.7780000 991.0661154
164.1195617 -503.8510000 1000.8301088
167.9601706 -500.6030000 987.1809670
168.6777563 -494.9570000 992.5926056
170.6930181 -493.7930000 982.7529872
167.5074076 -492.4940000 1001.9881891
168.1285477 -481.2990000 1003.7100387
168.5918365 -475.2790000 1000.0759208
170.0763012 -484.9600000 992.2080835
170.4346917 -473.1810000 988.8743226
171.6516178 -475.6900000 983.2392471
164.9604241 -444.2080000 1000.9991779
166.1366171 -453.8090000 1001.7712316
167.0374426 -444.0010000 989.4505905
168.0052213 -453.2080000 990.7323632
167.7920560 -463.8740000 999.0256251
169.5737337 -465.3850000 989.7400821
162.0230162 -421.5830000 999.7538588
163.4625482 -433.9560000 1001.2040383
164.0246830 -424.9040000 991.5794552
165.3014469 -435.4930000 991.9490036
166.6069026 -424.4250000 981.7106680
167.7312637 -433.9950000 982.0172054
157.5466430 -392.1570000 1003.1858571
158.3456517 -393.3910000 999.9106503
159.8840341 -393.0710000 992.1612650
159.8514399 -404.8850000 999.8620506
160.4481702 -413.8390000 1002.8216854
161.7987473 -403.5310000 989.1793645
162.6993529 -413.2430000 990.7724855
165.2210619 -413.5860000 981.8774481
155.3042864 -373.2340000 1001.7566693
155.9115618 -367.5190000 995.5654443
156.8514042 -385.1020000 1001.9252259
158.0487786 -375.1560000 990.7717474
158.0385352 -385.0970000 996.1673282
159.2742924 -383.7930000 989.8895253
160.1814973 -373.3970000 982.9408921
151.6202775 -344.8670000 1001.5941775
153.4287330 -355.1780000 999.3847602
153.6988163 -346.2600000 993.0436572
154.1084420 -362.6160000 1000.7800310
155.1525303 -345.3200000 987.4197839
155.1657715 -356.7680000 992.7589601
156.4029943 -363.2340000 991.0857734
156.5661208 -355.5590000 987.2247205
148.9704374 -323.5140000 1000.8275500
150.3374007 -333.4560000 1000.5412349
151.5293815 -324.0560000 990.3959607
152.6995109 -334.3680000 990.8647518
147.7971914 -314.2450000 1000.6687836
148.4219514 -294.7510000 988.7290465
148.9888076 -304.9850000 990.9576488
150.1641561 -314.9310000 991.3035343
151.3186948 -301.1730000 983.7341628
148.5510681 -274.6160000 982.2702131
149.6226405 -283.9390000 982.6443918
147.1457006 -262.6010000 982.3804626
150.6692923 -117.1960000 981.3343410
147.8506119 -104.2670000 983.5773252
-314.7547051 -111.2070000 999.8433037
-314.3450899 -91.7361000 1008.9171355
-313.2811568 -98.9469000 1006.3741146
-318.2210931 -73.2295000 1014.3675413
-318.0001518 -78.7689000 1012.8828161
-317.3628789 -83.4885000 1011.0088558
-316.9382920 -86.6349000 1009.7695455
-287.0641025 -216.9750000 995.2165737
-289.7838836 -197.2950000 995.3254154
-287.8556812 -208.3880000 996.7563802
-287.3576220 -196.7610000 1005.4323910
-296.0141957 -167.7840000 996.1726152
-292.6939733 -178.0930000 997.0098154
-292.2929151 -168.1890000 1003.3925010
-290.7232655 -186.9540000 997.5815984
-290.5358474 -168.9700000 1009.4105579
-289.2872052 -177.4530000 1009.1731622
-288.0121224 -187.9270000 1008.3462566
-306.7784622 -139.0080000 995.0104413
-303.7251787 -149.1060000 994.3901544
-300.4411751 -139.0940000 1001.9587131
-299.0762958 -148.1690000 999.8037030
-298.8326546 -156.9770000 996.8790786
-297.6696961 -138.8810000 1007.3631139
-295.3388044 -147.5950000 1007.4741676
-293.5030808 -157.8480000 1006.5919189
-293.3104198 -146.5190000 1014.6297166
-292.3129306 -153.0550000 1014.1656688
-311.7834921 -119.2480000 998.4606072
-308.5372539 -128.9230000 997.1951501
-306.8829138 -119.0600000 1003.0104485
-301.7819885 -118.6440000 1009.9563553
-300.7945528 -127.1390000 1007.4313381
-298.7823448 -118.2660000 1016.4270942
-296.1374412 -129.3030000 1016.6564083
-311.0187028 -107.2460000 1004.5527146
-309.9963888 -87.3162000 1014.5629059
-308.6375567 -94.8843000 1012.0276072
-304.9202941 -109.7990000 1009.7741416
-263.5184565 -395.0890000 996.4933644
-262.3229837 -396.4270000 1002.1065817
-261.7154213 -393.8460000 1009.2749423
-265.6217657 -375.2260000 1000.2595968
-265.2749223 -371.1690000 1007.6812193
-265.0698046 -368.7880000 1012.3781982
-264.6094790 -386.0420000 998.2754154
-264.8365997 -366.8040000 1017.4160291
-264.3502467 -375.0440000 1011.2966634
-263.3739989 -384.3060000 1008.5112641
-268.4991569 -347.5020000 1000.9245033
-267.9291683 -353.7170000 999.5189422
-268.1596165 -346.0740000 1009.2362396
-267.7989865 -344.5460000 1017.8886448
-266.9656088 -366.5060000 996.2630495
-266.7569569 -357.9360000 1008.7327845
-266.0109603 -365.7890000 1006.6415958
-271.2473933 -326.4210000 998.2616503
-270.9739687 -324.9890000 1007.5319845
-269.8715784 -336.7720000 998.4777390
-269.4610508 -335.7430000 1009.3121981
-275.6949655 -298.3620000 997.8050700
-275.2066107 -296.4340000 1007.9213202
-274.4877854 -305.9070000 997.5465817
-273.8915435 -305.4690000 1006.6753177
-272.9499027 -315.0600000 998.7172400
-273.2684039 -305.4100000 1016.3049294
-272.2915341 -315.2120000 1008.9879936
-280.8967555 -268.1490000 997.3087329
-279.4830712 -276.3700000 997.8359195
-279.7065406 -265.8120000 1008.6237665
-278.4226772 -275.9130000 1007.3469366
-277.6090456 -287.1110000 998.1650886
-276.8473842 -286.2440000 1007.3181631
-276.9671075 -278.8350000 1017.2384285
-275.7975539 -286.9760000 1017.7292121
-284.6797605 -242.4480000 993.6684580
-283.3971298 -246.5230000 998.7037588
-282.4121373 -256.5610000 998.0293118
-282.0811840 -246.2910000 1007.4712107
-281.2980578 -256.8020000 1005.2609531
-279.9292875 -255.7530000 1016.0604841
-285.7455071 -227.8650000 995.2110886
-285.7477641 -216.8340000 1001.3331274
-285.2333770 -224.9540000 999.6060006
-284.6647708 -215.9170000 1008.2238381
-284.3931451 -235.6060000 998.7677081
-283.9634420 -224.2890000 1007.7620385
-282.9012084 -235.8440000 1008.3400426
-286.8212538 -207.3840000 1001.1849760
-285.8563453 -206.9240000 1006.7021249
-285.8111726 -196.3920000 1016.6667220
-284.3936319 -207.2030000 1017.3140507
-237.4940320 -544.6520000 999.8357497
-242.8027208 -524.8790000 997.8060890
-241.4148699 -524.9620000 1006.8455162
-240.4944855 -533.9310000 998.4767413
-238.8526191 -534.6620000 1009.1233687
-248.0254940 -495.0900000 999.4099223
-246.6554210 -505.6330000 998.3554253
-246.5859662 -493.8270000 1009.3410079
-245.7892487 -496.5070000 1012.5329573
-245.1301317 -513.2410000 998.9755652
-245.3048893 -504.7360000 1007.6739713
-244.6044404 -504.6650000 1012.5939929
-243.8342020 -516.5610000 1002.7007652
-242.9347358 -515.3850000 1010.7170575
-249.9961448 -474.3830000 1000.8988469
-249.4821200 -484.2980000 998.0013096
-248.8302197 -474.1100000 1009.5123189
-247.7474732 -483.8470000 1009.2305653
-247.7770966 -476.0460000 1016.5122851
-254.3285648 -446.1030000 1000.7053710
-253.9987934 -443.1130000 1006.7160632
-253.1296514 -454.8090000 998.7760938
-252.6536317 -444.6040000 1018.0351542
-251.9237669 -465.1130000 996.2367900
-251.9771903 -454.1610000 1009.0497823
-250.0980242 -465.7740000 1009.2590448
-257.6741183 -426.4640000 998.4670276
-256.4492346 -436.7560000 997.1886533
-256.2856640 -426.0900000 1009.3170912
-255.0171027 -435.1180000 1008.5100217
-254.0562211 -435.4720000 1018.2685186
-260.6946672 -406.2690000 1000.7787511
-259.7094923 -405.1800000 1008.8072911
-259.2176157 -416.9090000 997.8164006
-258.1330839 -414.6140000 1008.0482966
-257.3604281 -414.6510000 1016.7815150
-261.7181430 -387.3250000 1017.8978259
-222.0347717 -572.2090000 997.6596803
-222.2520478 -570.5310000 1009.5480665
-221.4064910 -570.1950000 1017.7129986
-217.7883180 -574.6190000 1009.2348060
-216.2472678 -576.6720000 1000.3521021
-212.5059047 -578.2870000 1011.5038610
-211.6766942 -579.3020000 999.9316017
-233.8012296 -555.4180000 999.2422126
-233.4072011 -552.8220000 1009.0258797
-232.9166422 -551.5950000 1017.0714781
-231.5413270 -560.8670000 996.4103996
-231.1238566 -557.4700000 1010.8762848
-230.1364453 -557.8330000 1018.7048149
-227.9348645 -563.6170000 1008.7790442
-227.6865401 -565.7560000 999.3723211
-236.0408352 -544.1650000 1011.3077212
-204.4316270 -581.3250000 1011.2551357
-203.0247245 -581.9190000 1001.6886860
-194.9410246 -581.7150000 1011.2035531
-194.2175480 -582.2720000 1003.0196871
-185.1389789 -581.5400000 1001.2067151
-184.4076087 -580.4010000 1012.0895894
-174.5338553 -579.8090000 1000.8442006
-172.8927382 -578.5780000 1008.9599411
-165.8790763 -577.9400000 1002.7614133
-165.3193911 -576.6650000 1012.3693565
-153.7871322 -575.6730000 1001.7375926
-154.0206021 -574.5600000 1011.6848898
-149.9211229 -573.1840000 1017.7942952
-145.4545895 -572.5280000 1016.3807310
-145.3197972 -572.9150000 1012.3028621
-143.2894157 -573.5080000 1003.2228998
-134.8972174 -571.0460000 1012.6158007
-132.9801826 -571.9110000 1000.4418111
-130.6142671 -570.8250000 1007.3561129
-125.1194964 -570.3150000 1002.6883497
-123.7400058 -569.0290000 1012.4978220
-116.1487455 -567.4310000 1013.8670072
-114.2338238 -568.3790000 1002.8433565
-106.0142467 -565.6640000 1012.3417748
-102.9691990 -566.1120000 1004.2887253
-95.5577203 -563.4190000 1013.9560479
-94.7476894 -564.4500000 1004.3539617
-85.9980153 -562.7360000 1003.9728708
-84.3111899 -561.2160000 1014.2205384
-75.7141043 -559.5090000 1015.3459695
-74.7679271 -560.3320000 1005.2472770
-66.0770363 -557.8430000 1014.5679719
-65.7845927 -558.7380000 1004.3321197
-56.5173194 -557.1360000 1003.0142570
-56.5897997 -556.1670000 1014.4462771
-51.4443207 -554.8980000 1018.7624491
-49.6835040 -555.9560000 1002.3429154
-45.0073829 -553.9780000 1016.1100396
-44.3696887 -554.6310000 1006.8035434
-36.8264081 -552.6000000 1015.3439300
-34.0669386 -552.8580000 1006.2030322
-26.7616583 -550.8700000 1014.8172140
-26.0354851 -551.5910000 1004.3326302
-16.6579869 -548.3300000 1024.0948765
-15.8340039 -549.7390000 1005.0399162
-13.9552811 -548.6390000 1014.5223448
-5.3113371 -547.0570000 1015.2488658
-4.5239837 -547.7860000 1004.7058635
3.2801971 -546.2430000 1006.7608574
3.9385885 -545.2990000 1016.8015327
12.9273854 -544.6000000 1005.9631179
13.5242392 -543.7040000 1015.6720688
22.4850406 -542.0710000 1016.2668390
23.6018955 -542.6660000 1005.7624753
30.5909670 -540.5990000 1016.5591276
34.2413188 -540.5290000 1007.9217228
39.0310664 -538.9900000 1017.2503005
41.4515461 -537.9200000 1025.6565419
42.6306796 -538.9300000 1006.7609329
45.2128458 -537.9040000 1016.0216996
47.7800359 -537.9930000 1004.3048857
51.6354250 -536.7120000 1015.1095105
53.3856906 -536.6870000 1007.5927513
60.3217784 -534.8200000 1017.9678722
62.5343759 -534.7420000 1008.3624998
70.8514577 -532.7090000 1017.8734748
72.9329184 -532.5440000 1009.1349666
81.7203786 -530.7460000 1008.5447932
82.6212808 -530.2470000 1018.3017196
92.6485111 -528.5630000 1008.3007748
93.5074106 -527.9230000 1019.5471120
101.1451643 -526.4310000 1017.7464280
102.6408335 -526.4990000 1010.6731562
112.2781355 -524.3100000 1018.4280888
112.7656529 -525.0950000 1006.6868271
118.9103480 -522.6730000 1025.9942927
119.6328989 -94.4678000 1018.3805978
114.2514063 -66.3222000 1027.8029556
116.5263036 -65.4574000 1019.6997287
116.5321007 -85.7787000 1027.8826845
116.9673953 -74.8086000 1020.7716424
118.5557938 -84.4572000 1018.7525299
120.5360293 -66.0479000 1010.4415185
111.1200281 -36.7853000 1027.8910158
112.1232781 -46.2274000 1027.6271874
115.7096271 -46.1929000 1018.7980416
116.5936770 -55.3208000 1017.8908724
119.0426741 -36.7145000 1013.4534591
119.8623153 -46.8137000 1012.0644388
110.2691015 -16.8319000 1026.9984353
111.1158321 -28.5434000 1026.3703849
114.9199244 -25.9789000 1019.3875716
115.4732546 -35.4026000 1018.5417662
115.8629313 -17.5628000 1018.7120251
119.4909835 -12.8009000 1015.8160041
109.7078689 -5.8751000 1027.7640063
114.8317005 -7.0213200 1021.0758407
115.6658946 3.3307100 1021.9579796
116.3436433 12.5405000 1023.0460939
117.1269290 21.5894000 1024.4970951
117.8063736 34.8788000 1026.8957029
122.2289935 -523.4750000 1009.8156206
122.7339763 -522.6750000 1017.9216173
124.8670745 -521.9910000 1022.3389690
130.8661978 -522.3840000 1009.6916738
131.4192477 -521.2640000 1020.4698444
134.9964008 -521.3220000 1014.9715992
141.3405635 -521.1930000 1005.5744499
141.5581555 -519.5740000 1021.2555193
144.4391979 -519.8580000 1012.2378460
145.0773306 -324.7670000 1021.4477064
145.3438410 -336.0720000 1028.1169682
139.9136966 -293.4620000 1026.7143430
141.4582223 -307.8830000 1028.3953500
141.6684725 -297.7570000 1020.7482332
142.4555879 -305.1930000 1021.7091668
143.2230152 -295.4570000 1011.2356667
144.2187121 -315.6100000 1019.6646194
144.6520907 -304.2880000 1009.9526358
145.9468632 -314.7790000 1010.4366949
138.0622401 -274.1290000 1022.3143697
138.2894034 -284.1020000 1028.2323441
138.5977944 -270.1230000 1017.0665906
139.4041762 -265.3240000 1009.9952761
139.4491667 -275.3950000 1016.5286926
140.3250696 -285.7890000 1019.3325819
140.7009253 -275.7730000 1010.7094657
142.1037745 -285.2050000 1010.0459607
134.6943414 -247.1790000 1021.0057600
135.9133824 -243.5560000 1012.0045863
136.1847280 -256.1810000 1019.4442387
136.8841236 -251.3190000 1012.6002014
137.1152397 -247.3860000 1008.4348240
137.1478532 -264.3300000 1020.1396887
138.2667274 -255.6800000 1008.7750830
130.3178625 -215.9160000 1020.2409350
131.7720813 -226.0470000 1020.9392413
131.7360066 -235.5510000 1027.9707065
132.4194984 -215.5540000 1009.6623244
133.5793191 -224.9540000 1010.5629936
133.6879614 -236.3060000 1018.6386049
134.9693605 -233.5500000 1009.3189544
136.0908887 -237.0850000 1005.8371194
127.4501301 -196.9470000 1019.9257586
129.2920831 -205.9500000 1017.5831725
129.8928161 -197.1880000 1009.4261026
131.2046055 -207.0910000 1009.6805285
126.6953793 -179.1450000 1017.8052748
126.7030712 -165.5980000 1018.6957813
126.7146403 -187.2060000 1019.0562077
128.3467807 -175.1330000 1010.7060708
129.0615488 -186.6970000 1008.3939889
129.2027851 -165.9030000 1008.1576051
125.6538863 -147.3290000 1019.3385371
126.4809556 -154.4990000 1018.4298759
128.0759341 -145.3800000 1008.3281660
128.6105669 -155.4740000 1009.7626526
121.8806768 -114.5370000 1018.6095162
123.0603256 -126.0290000 1019.8608246
124.3214645 -136.3710000 1019.8338281
125.0613224 -117.5530000 1007.7390508
125.3456652 -126.2330000 1010.3273810
126.6017090 -135.6230000 1009.9601345
120.5982170 -105.8160000 1019.7563383
122.5714928 -96.1283000 1009.3044110
123.4951060 -107.7810000 1009.5986893
121.9023369 -75.6233000 1008.3465664
122.1503240 -85.2270000 1008.5031115
124.5903983 -66.5746000 1004.6356600
120.7168497 -57.3282000 1010.7563597
124.5619394 -55.9227000 1006.2954838
125.1354924 -36.6896000 1008.8413701
125.9269990 -45.5341000 1007.1515102
125.5434551 -25.8609000 1010.4526014
125.9233761 -16.2219000 1011.2628242
130.2023533 -15.8727000 1009.5242390
133.1894166 -25.4837000 1007.8418547
135.0349433 -34.5039000 1006.2796296
120.8431161 13.6990000 1021.2532620
123.8967826 -3.4116300 1015.8813568
123.9519175 4.7800100 1018.2836233
124.3403098 -9.9634600 1013.4221243
128.5809491 -6.1336200 1013.0329980
121.1221476 23.5906000 1023.0511823
153.5798861 -516.3640000 1009.8863156
153.6894618 -514.5690000 1019.0723317
158.8368507 -510.0740000 1011.0643305
159.7660790 -504.5400000 1021.3821906
161.8197827 -504.4080000 1011.6025990
163.6479609 -493.7510000 1021.0937075
164.6415327 -496.6230000 1012.3367154
163.4102457 -471.7910000 1029.1402422
163.7913257 -479.6430000 1028.3399435
164.8139900 -474.1640000 1021.1842616
165.1911130 -484.3370000 1019.0834137
165.7209880 -493.2390000 1010.6143820
166.4581206 -473.4480000 1011.5740068
166.7796706 -485.0470000 1010.1819469
160.5740962 -443.7500000 1023.2639868
161.2217094 -454.0840000 1028.9028717
161.4576795 -450.7850000 1024.4375185
161.7315153 -446.3330000 1019.4429752
162.4938685 -443.2080000 1013.2508093
162.7804233 -454.8780000 1020.7208703
162.9866887 -463.9550000 1026.5582700
164.1458793 -463.7900000 1019.7662866
164.4309805 -453.8180000 1011.1708043
165.9401728 -464.4200000 1010.1899742
158.5649613 -424.9150000 1020.1103131
159.6999575 -434.7870000 1021.0803563
160.2235121 -429.7860000 1014.9919750
160.6825178 -424.4600000 1008.9619240
161.8321522 -434.2550000 1010.0223813
154.6598692 -394.0330000 1019.5278901
156.1188681 -404.7580000 1019.3560234
156.5977965 -392.5590000 1008.3247801
157.1802007 -415.0710000 1020.6942644
158.1480317 -405.6450000 1009.4057310
158.8157176 -414.0780000 1011.6039622
159.5581157 -415.2980000 1008.5423468
151.9566801 -375.4320000 1020.1873549
152.7439473 -384.8860000 1023.1289712
153.3174828 -373.1120000 1011.3499482
155.1370658 -383.9430000 1009.7470300
147.8468802 -345.2880000 1021.3101576
149.3224655 -355.4910000 1020.4284818
149.8017600 -346.0100000 1011.4079372
150.5959321 -365.0130000 1020.1217122
151.1551916 -353.5380000 1009.4226856
152.3007079 -363.9680000 1010.3729974
146.8506391 -334.2370000 1018.8232269
147.6898747 -324.8980000 1008.2815831
148.1435922 -333.6830000 1011.7746571
-314.7036384 -67.7720000 1018.3309757
-321.4277659 -36.9700000 1022.5263962
-321.0323607 -41.9790000 1021.0262327
-320.2854782 -46.2468000 1020.0854614
-319.5405951 -50.5148000 1019.1446378
-317.8978982 -57.1890000 1018.7575059
-315.9277270 -39.0534000 1026.9518870
-313.5692774 -49.0888000 1026.1633538
-324.0623293 -14.0772000 1029.8099273
-322.9767110 -19.9767000 1027.7376354
-322.0210046 -29.4565000 1024.7816399
-320.1553346 -20.6813000 1030.0522835
-318.5476900 -11.3453000 1036.4665648
-317.8631735 -28.2091000 1028.8918877
-315.8547820 -18.9833000 1036.0469131
-314.1433308 -27.9748000 1033.9509955
-327.4616457 10.8877000 1038.9840873
-326.5804128 1.5475400 1036.2362137
-324.7766896 -7.3669700 1032.8322632
-320.7442576 -1.0546300 1039.2100055
-329.3146006 19.0918000 1040.0659533
-289.2662424 -168.4280000 1018.2668271
-288.7339520 -165.7960000 1028.0040976
-288.2536647 -165.1340000 1038.3902291
-287.6849457 -178.4850000 1019.4986428
-292.1529814 -148.1640000 1020.2819516
-291.3386095 -147.9040000 1027.3456900
-290.9270337 -158.6210000 1017.4730807
-290.9503210 -144.9560000 1036.2789154
-290.1439507 -157.0220000 1026.6867367
-289.4360449 -155.8900000 1038.3892777
-295.9833285 -117.3130000 1026.8539369
-294.6883797 -127.1390000 1024.2369379
-294.6944379 -117.5170000 1037.1512047
-294.1877451 -137.4330000 1018.2980079
-294.0330804 -126.1770000 1029.5058972
-293.1779122 -127.9360000 1036.7307587
-292.6824581 -137.8060000 1027.3605172
-291.8795868 -136.4690000 1038.6454010
-304.0385391 -97.2256000 1017.1297438
-304.1491235 -87.6629000 1021.6584009
-301.5939043 -89.5712000 1026.9170908
-300.6174462 -108.1490000 1018.0496128
-299.5523157 -98.0769000 1027.5707574
-299.6777146 -88.3891000 1035.1100583
-297.8261503 -107.4550000 1026.5555952
-297.6428788 -98.2799000 1037.2440554
-296.3247633 -106.8490000 1036.3782629
-295.5644128 -110.1280000 1039.8893698
-311.7105278 -78.0088000 1017.0288800
-309.7328848 -63.5144000 1024.8233196
-307.4475068 -62.8821000 1028.9645630
-305.7124810 -69.5848000 1029.3301059
-304.2199320 -79.1621000 1026.9983773
-303.0822210 -67.2089000 1038.7521868
-301.0702049 -79.1701000 1036.9442357
-312.5255136 -37.9186000 1031.9926739
-311.5537635 -59.9018000 1024.1454223
-309.3180132 -38.4198000 1038.3188043
-307.4375914 -48.0470000 1037.2576644
-305.7458944 -58.9979000 1035.3813048
-311.2979550 -29.9640000 1037.9468480
-263.3555532 -376.1870000 1018.8853018
-262.5851567 -375.5520000 1028.0486085
-267.0512066 -348.5870000 1020.6191551
-266.9935013 -344.4900000 1028.2332748
-266.2681279 -355.6150000 1018.4489100
-265.9074956 -345.8720000 1038.0650722
-265.5823190 -354.7080000 1028.1301799
-264.6937674 -354.3510000 1038.3969576
-263.9391935 -366.4020000 1027.8030798
-263.2002566 -365.0740000 1038.2059877
-271.5094754 -317.0660000 1018.0115576
-270.1665790 -326.6890000 1017.9566918
-269.9826702 -323.2550000 1027.4747675
-269.8124606 -316.4050000 1039.2732662
-268.8802967 -332.6500000 1025.1828389
-268.6878923 -337.4160000 1018.6756456
-268.7812850 -330.5320000 1029.9970805
-268.5476418 -327.3630000 1037.1956633
-267.9185560 -336.6170000 1030.2097370
-267.6830293 -333.0180000 1038.1386194
-274.4066948 -296.3900000 1018.3258250
-273.7475902 -294.6890000 1028.1864573
-272.1011110 -307.5970000 1027.3492702
-272.3284881 -298.5850000 1037.2166995
-271.4224458 -306.4630000 1036.3101063
-270.9206750 -315.3980000 1028.9907329
-270.7940218 -311.8360000 1035.5763050
-278.1934157 -267.4930000 1019.2970330
-277.0047545 -267.5130000 1029.1815357
-276.0875547 -277.4450000 1027.0848267
-275.9375981 -266.0380000 1039.3129423
-274.8754863 -285.6080000 1028.8171485
-274.9737711 -276.8350000 1037.3074852
-273.7142275 -287.5840000 1037.1504024
-280.5981398 -245.2990000 1019.0640048
-279.3257463 -245.8570000 1028.7306247
-278.3949554 -257.4560000 1026.7643161
-278.4352524 -245.0330000 1036.9367471
-277.1092269 -256.7620000 1037.8317651
-283.4004221 -215.8740000 1017.9302611
-282.5088245 -226.0590000 1017.6134918
-282.4052448 -216.1170000 1027.2194950
-281.4767475 -237.1740000 1018.1206823
-281.3643606 -225.7600000 1027.8869709
-281.5491187 -216.6390000 1035.7448272
-280.2512374 -236.1030000 1028.9664790
-280.4683847 -224.7300000 1037.7938196
-279.2382352 -236.3410000 1037.7660116
-284.3521201 -198.8240000 1028.2588879
-283.9003220 -196.0800000 1038.8543454
-283.4830215 -206.9440000 1026.4710256
-282.6249054 -206.0050000 1038.1674965
-287.2275482 -177.6890000 1026.2129169
-286.9867164 -185.8240000 1017.8563575
-286.6616905 -177.6030000 1037.5716216
-285.9374610 -186.9880000 1027.4871240
-285.3486852 -186.2470000 1038.2762336
-239.9368675 -525.1090000 1019.3184800
-238.8453381 -525.7900000 1029.5505592
-238.3892854 -523.5710000 1038.8756928
-237.7012012 -534.3650000 1020.2773315
-245.1217809 -494.5080000 1019.1326911
-243.5651930 -505.1070000 1019.7036335
-243.4076982 -496.2710000 1030.4214290
-242.2923956 -505.6370000 1029.2402194
-242.0026242 -513.1360000 1021.7652432
-241.2390921 -504.0320000 1039.2512222
-240.4624630 -515.7760000 1031.9790600
-239.6529356 -513.6840000 1041.4434942
-247.0060001 -476.9350000 1022.5545406
-247.1865964 -472.8260000 1029.6422419
-246.3626837 -483.1980000 1020.2205809
-246.3457439 -473.9070000 1039.6676883
-245.2146102 -484.9790000 1028.7135443
-244.1829634 -485.1880000 1039.2841719
-242.9986332 -491.9700000 1038.9050442
-251.7749799 -444.9190000 1028.6417892
-251.0787104 -454.0970000 1020.0070565
-251.0294059 -445.0000000 1038.2946138
-250.2077220 -454.9830000 1030.7535389
-250.4152710 -447.7950000 1040.9716074
-249.4443519 -460.8990000 1028.3426955
-249.1640859 -466.0660000 1018.9768225
-249.2276345 -456.9810000 1040.1224051
-248.4613283 -466.1900000 1029.1186939
-248.1089289 -464.7510000 1038.8112401
-255.6158022 -425.1130000 1018.9579298
-255.4138043 -417.5940000 1038.9400649
-254.7460298 -425.8340000 1029.2542261
-253.8923486 -426.1920000 1039.2099844
-253.4276298 -434.4060000 1028.1483588
-252.4796659 -434.7470000 1039.3170008
-260.0424973 -396.8300000 1019.2321464
-259.4094824 -396.4410000 1028.3318350
-259.0173762 -403.8030000 1018.4387090
-258.7925057 -396.0480000 1038.3114053
-257.8555180 -407.2860000 1027.7423111
-257.4519918 -405.5100000 1037.7362988
-256.7368825 -414.9790000 1026.7012368
-261.6939817 -374.9220000 1039.4758526
-260.8341155 -387.3500000 1027.7643480
-260.3109586 -385.0610000 1038.8818524
-217.0638297 -573.9040000 1019.3872499
-216.9164699 -572.5980000 1031.0651090
-216.1669428 -572.1210000 1041.1781949
-211.2666897 -577.8930000 1021.3296670
-234.8131742 -545.4170000 1018.8624464
-231.9924839 -548.8950000 1037.7827670
-231.1149178 -553.1820000 1029.4828948
-230.3952950 -551.9120000 1042.6862568
-225.9883624 -564.5370000 1019.8637962
-225.2094146 -563.9380000 1030.4578170
-224.9322532 -562.8170000 1039.7382524
-236.5413157 -535.4530000 1030.1910910
-236.3699282 -532.9020000 1039.3087017
-234.4103651 -543.8820000 1028.1961891
-234.1204830 -541.6150000 1039.8177598
-208.8059101 -576.5460000 1043.2215845
-205.8808066 -577.8600000 1040.4672109
-205.0804362 -579.3220000 1030.4547311
-203.7807113 -581.0690000 1020.8554645
-195.1772328 -578.8440000 1041.8078572
-194.4326804 -581.1590000 1020.4800388
-192.3879047 -579.7770000 1031.0972030
-185.6498122 -578.6570000 1030.7234576
-185.1416104 -577.5420000 1040.1199808
-183.7162591 -579.3640000 1020.6806307
-176.0784916 -576.5450000 1032.3645680
-173.9896635 -577.3610000 1021.2054232
-174.0694494 -575.2240000 1041.2902172
-167.3756870 -573.7250000 1043.5262057
-166.2741413 -575.8140000 1021.4774852
-166.0902306 -574.7230000 1031.4157050
-162.2156307 -573.4650000 1036.6389201
-156.8178591 -574.0250000 1021.7050998
-156.1808927 -571.8690000 1041.3885187
-154.8659605 -572.6680000 1031.3995166
-151.7174348 -572.9590000 1023.1691151
-147.6611376 -570.0730000 1043.5722882
-146.8761946 -571.0680000 1032.6590959
-145.1102766 -571.8760000 1022.1417182
-136.1265779 -570.1560000 1022.8171155
-137.4235863 -568.3640000 1041.4695555
-135.2478822 -569.0030000 1031.5731175
-128.0808732 -566.6910000 1040.9839528
-127.0092282 -567.3750000 1032.2290051
-124.1455238 -567.6330000 1025.0615120
-117.0731359 -566.5480000 1022.7058383
-116.6381199 -565.2610000 1033.8810552
-116.6962233 -564.3430000 1044.4431536
-106.0039148 -562.5440000 1043.1425999
-105.2209491 -564.3330000 1022.4259965
-104.8097060 -563.2410000 1032.5302241
-96.5005520 -560.8300000 1043.7115639
-94.6428864 -562.0320000 1025.4539355
-93.9999180 -560.9450000 1036.6145909
-88.1068723 -559.1710000 1045.9920663
-85.9054644 -559.8380000 1032.5850982
-85.5844918 -560.5620000 1023.5404009
-80.8097540 -558.0830000 1043.1721163
-78.0137546 -558.3290000 1034.0021647
-75.6270452 -558.7900000 1023.3709984
-74.8228996 -556.9020000 1044.7993915
-70.7962095 -556.9500000 1035.2715330
-67.4854014 -555.6080000 1044.8114689
-66.6731553 -557.0600000 1025.1159819
-65.6190051 -555.9760000 1036.0573257
-58.3663363 -554.0640000 1044.1299447
-57.2229671 -554.6200000 1034.5766009
-55.8160901 -555.1890000 1024.6100134
-47.9184782 -553.6880000 1025.8971898
-46.5658414 -552.7160000 1034.9156881
-46.8300267 -551.9130000 1045.8625238
-38.1050957 -550.9890000 1037.8381661
-36.0770544 -551.6580000 1025.2069256
-36.1715920 -549.8880000 1047.8722177
-28.4884246 -549.5290000 1034.9389077
-27.4815231 -548.5600000 1045.0987468
-26.3128789 -549.9090000 1025.5726473
-16.8750159 -546.6760000 1045.3064640
-16.2912591 -547.3050000 1035.8685108
-7.5667359 -544.9520000 1046.4605218
-6.2145211 -546.3290000 1026.0589276
-5.1997641 -545.1300000 1038.6498054
0.7017572 -544.3030000 1035.9833755
2.5844805 -543.1950000 1045.8860528
5.2710293 -544.2470000 1026.7498210
11.4280390 -542.3600000 1036.5943662
12.9749131 -542.8570000 1027.1416194
12.9313747 -541.2990000 1046.7972152
20.9105495 -540.0250000 1045.0154751
22.4343029 -541.2720000 1026.1388938
22.2106342 -540.5880000 1034.9860705
27.1198650 -539.3010000 1040.2063680
29.6543124 -539.4920000 1032.3300131
30.8161659 -539.8060000 1025.9482400
30.3652007 -538.2360000 1046.7035475
34.1911260 -538.3880000 1036.0600512
37.5186897 -538.3050000 1029.7750030
42.0286334 -536.1330000 1047.4891297
42.7295408 -536.9620000 1034.9831919
51.5503013 -535.9390000 1027.5515458
52.1670316 -535.0730000 1037.7811954
52.7993973 -534.3110000 1046.5007368
61.0189415 -533.4530000 1038.3130936
62.1863191 -533.9190000 1028.2402003
62.5561483 -532.5000000 1047.8566033
70.4465460 -531.7640000 1038.1498236
70.3703353 -531.0620000 1048.8915096
71.5327653 -532.2130000 1026.9244108
80.2776314 -529.8730000 1039.0774893
81.9485997 -529.0300000 1048.1543406
82.4504138 -529.9070000 1029.4110537
91.4210202 -527.7110000 1038.1388676
92.2435975 -527.9090000 1028.1569796
93.8400965 -526.7570000 1048.8258538
100.9436364 -525.7540000 1038.2781884
101.5400104 -525.9250000 1029.3707472
102.4828018 -525.0580000 1049.3322670
109.0221158 -523.9970000 1040.8105261
