
43.7064275 -774.8523609 968.3520000
45.4614667 -771.0779599 978.0310000
54.8426555 -770.6569824 977.8930000
54.6705205 -774.6220682 967.5230000
60.5534721 -770.5733948 974.6640000
64.6885313 -774.6543181 967.1200000
64.3964499 -784.8506617 964.1120000
64.0978066 -795.0875878 964.4810000
69.9133619 -794.0213896 963.8480000
70.3593280 -805.7639421 964.3370000
73.7700760 -786.2670167 963.4260000
74.0531989 -796.6502036 963.4360000
74.8283179 -803.7849094 963.4200000
83.2751904 -786.8757584 962.6830000
82.4857130 -798.4811128 962.5500000
84.1612325 -805.9144300 962.0650000
73.7380757 -775.4149322 964.9140000
75.9831491 -771.1142378 971.6270000
78.1003604 -778.9375350 963.3530000
85.0497139 -778.3419446 963.1010000
85.5467130 -773.7397482 966.5630000
86.7830534 -771.6786593 971.3800000
87.3032364 -770.1732678 978.5910000
91.3678201 -795.7468347 961.9980000
93.0640986 -805.4556200 961.8380000
101.7032755 -798.6597134 961.3540000
102.8627396 -804.7860800 961.3980000
104.4417497 -788.6884434 961.2280000
91.9439439 -786.9013876 961.9810000
94.0664500 -775.0211684 965.2360000
94.4275449 -779.4073306 962.5130000
97.1524481 -771.8400256 970.6240000
101.0292671 -775.7517982 964.6580000
105.8078198 -772.2710311 968.6440000
105.5521432 -779.7140704 962.2840000
106.4471004 -769.8977169 977.6330000
113.5722038 -801.0833814 960.3150000
114.5277003 -790.8848500 960.3990000
121.8281502 -801.3870903 959.4680000
123.2780939 -791.0902787 959.5040000
132.3524048 -803.9089359 958.6380000
133.9764067 -792.3454745 958.3830000
113.7571396 -781.5983532 961.9250000
114.8844125 -769.8609371 977.7330000
115.3301671 -771.6616394 969.6670000
116.5468754 -775.6076985 964.3110000
124.8751190 -772.4575655 968.8420000
124.8443368 -780.2214265 961.9230000
133.7307742 -780.5240823 961.2970000
135.0576879 -773.5381468 968.7980000
135.5746701 -770.8760748 978.5060000
141.2753388 -801.8668501 957.9170000
144.4874475 -792.4941378 957.6390000
152.1277348 -802.8524492 957.1640000
145.0039749 -774.8640684 966.5750000
144.7150509 -782.3543899 959.3560000
146.2251068 -771.3360720 978.0370000
154.4823813 -773.4718682 968.5380000
153.7762938 -782.5177509 958.7700000
153.2114411 -791.5097380 957.0040000
155.9648378 -776.4112581 962.3540000
162.3809044 -803.5276411 955.9850000
163.7097693 -793.9951855 955.9870000
172.3913199 -802.5142501 955.5350000
174.4862785 -797.0299684 955.5080000
182.8940800 -796.0339665 955.5470000
163.4131936 -769.9628871 978.5920000
164.3801839 -771.9557493 967.7230000
163.8363596 -783.9429668 956.9040000
165.8897937 -776.6270963 959.6710000
174.0180484 -785.3778195 955.7290000
175.0838999 -774.2162414 959.1030000
184.8919913 -777.8790109 955.7130000
185.4318218 -787.2326536 955.2960000
170.6260691 -769.7055513 969.2700000
177.1369149 -765.0693669 969.2140000
179.0742910 -768.6950170 960.3070000
179.9444878 -760.6532583 975.4780000
183.4314397 -755.1150918 978.2220000
184.8022406 -756.3131239 968.9360000
185.5119359 -765.7789984 958.8600000
196.5508046 -658.0883036 977.2790000
197.7051318 -638.1821609 977.5220000
196.8310297 -648.8616165 978.2130000
199.1333304 -606.5633174 978.1900000
198.8211421 -617.0961892 977.8820000
200.2314728 -587.8156864 977.8920000
200.1507468 -598.0435709 977.3720000
201.0549053 -567.1136759 978.4550000
202.4365239 -556.9323489 977.2470000
200.8889676 -577.3632161 977.8320000
204.1586510 -537.6269794 976.3700000
203.6916019 -545.7190662 976.4950000
205.3691228 -527.3824956 975.2900000
206.4092950 -517.1110667 974.8340000
204.5109249 -496.2191126 978.5960000
203.6874151 -506.7333489 979.0580000
207.1814054 -506.9778004 974.6160000
208.9226548 -488.3717587 974.4120000
209.1982404 -498.4280448 973.4940000
206.4268099 -466.8051641 978.4920000
209.2058215 -468.3261587 975.5620000
210.1209216 -476.8784590 974.1440000
214.0228993 -467.9274776 972.1240000
210.4736105 -438.0474341 977.3930000
210.8388618 -457.6920215 975.0070000
214.1296397 -446.7431680 973.3480000
214.0606344 -426.2481641 975.6510000
213.7056468 -435.6409673 974.7160000
216.5061230 -416.9408854 975.5170000
218.5481094 -408.1724899 976.1960000
219.5665694 -398.3328116 977.5970000
190.2324900 -795.9251369 955.8910000
195.1210684 -778.8181072 955.4820000
194.4435282 -788.4326419 955.8390000
200.3583132 -785.9396628 956.2250000
205.5106136 -779.2080998 956.1490000
190.4417769 -751.5736065 963.5880000
189.9194959 -759.1840468 959.7190000
196.1639450 -755.4701539 957.7950000
197.4188402 -768.9618652 955.5120000
205.1038812 -759.3721690 955.8670000
208.6153971 -768.9165370 955.9650000
212.8387820 -750.9221552 956.4510000
212.5958650 -757.9898784 955.9060000
190.8322120 -736.2453064 977.7700000
190.9681258 -744.7083565 968.6310000
193.0496868 -734.9024621 970.1880000
194.4497273 -726.2545759 970.5040000
194.5876935 -736.7364873 966.0790000
196.9380961 -728.5963627 965.1970000
196.5124081 -746.1289785 960.3880000
200.0434794 -738.4113637 960.0920000
201.6752778 -728.0782638 960.8910000
207.4901011 -748.2869592 956.8700000
209.3215319 -738.6207963 957.4430000
210.9381129 -728.2321587 957.4880000
193.7235090 -708.0510117 978.5180000
192.9295771 -717.7567493 978.8580000
195.8622338 -706.6330180 972.5430000
195.3590557 -718.7522806 970.7780000
197.0925731 -716.8370786 967.9290000
198.6851244 -706.7575229 967.3690000
201.2307993 -717.9560067 962.7890000
203.8837294 -709.4558792 961.7020000
211.3456260 -707.8782229 958.0730000
211.0109286 -717.7275317 957.8880000
194.3941602 -698.1939537 978.2660000
196.8722641 -690.2005173 972.5390000
198.2865656 -676.2838246 971.5930000
197.2025771 -696.8546269 971.0370000
201.2388392 -686.5752943 966.4400000
200.9026217 -696.3501875 965.9160000
205.1624997 -697.8341070 961.8300000
206.9630968 -686.9255290 961.3060000
208.1127754 -678.8560232 961.3740000
211.2791681 -686.9066275 959.0470000
212.6531838 -678.3267317 959.2770000
211.0206010 -697.5265037 958.5460000
199.3778702 -658.5093006 971.5790000
198.7440456 -667.6930059 971.6470000
203.1906225 -658.0819778 966.9040000
202.6876585 -675.9471238 965.8530000
203.9121389 -665.6687320 965.6030000
208.3008786 -657.5563658 963.3170000
208.4652368 -668.5053548 962.1750000
212.6898240 -668.8207520 960.2960000
216.0937693 -658.9649210 960.2620000
201.1773815 -628.5782416 972.1590000
200.7301516 -647.2864534 970.7620000
201.8777656 -637.2211731 970.3520000
205.7344462 -636.4523795 966.3690000
205.1131039 -644.9656214 966.4280000
209.3831015 -648.2844052 963.2120000
210.2666101 -639.1496475 963.2540000
215.5151739 -648.4595168 960.9310000
217.1445279 -638.9001481 960.5080000
203.4970958 -605.5517955 971.5460000
202.9721888 -617.7243671 971.1270000
205.8908198 -627.2530019 967.2130000
209.2211104 -608.6584982 966.2570000
208.9163900 -617.7635876 965.7700000
212.1464904 -628.1265436 962.9000000
213.1573593 -618.7178437 963.1500000
217.7423295 -608.8559226 962.0640000
217.6920931 -618.5173087 961.3610000
217.2622125 -628.6514054 961.0150000
204.7961214 -599.0452537 970.6250000
206.8581193 -589.2105446 969.3430000
212.0266172 -598.8045168 965.4510000
214.0190500 -587.3325143 965.4490000
215.9630707 -603.8016168 962.9720000
219.1103807 -590.3276505 963.5590000
218.4263987 -599.5912884 962.8110000
206.4190710 -567.0017679 971.3720000
207.4665593 -557.3121908 971.1550000
206.5751625 -578.1026142 970.4240000
214.7850138 -558.8197729 966.9360000
214.0600330 -568.7011884 966.6750000
214.1738304 -578.1972419 966.0490000
221.9477445 -557.5522226 964.7310000
220.3041312 -579.1842888 964.1100000
221.5040771 -568.6126427 964.4320000
209.3194891 -539.3342728 971.2010000
209.7319241 -548.0443634 970.0260000
215.7202202 -537.0926031 967.9110000
216.9311400 -546.7498906 966.6870000
222.0643642 -547.8434418 965.1970000
223.0119563 -538.9973679 965.7370000
209.6537426 -528.7671940 971.4780000
211.6459084 -516.8163461 970.8960000
218.1153314 -518.2757469 967.9660000
218.2434856 -526.5865414 967.7260000
221.7831405 -509.2591065 967.0650000
224.6427671 -519.4621651 966.0920000
224.0115839 -529.8777885 966.0380000
212.4227122 -506.5720665 970.9970000
214.0746468 -488.5394224 970.8800000
213.8956831 -497.6183728 970.5410000
221.2911119 -487.4723181 968.1770000
221.2641727 -498.1295241 967.6540000
215.1701760 -477.6926287 970.9180000
222.7851885 -467.3429371 968.6350000
222.4269974 -477.5525694 968.3240000
217.5941650 -437.9044874 971.9630000
216.6976066 -458.1343278 971.2690000
217.9092688 -447.4402369 971.2760000
224.0674860 -438.2981726 969.4980000
224.2849500 -448.9155281 968.8870000
224.6438958 -458.1911086 968.3090000
218.7866263 -428.3821820 971.9470000
222.8890377 -414.9716998 972.5100000
225.6087320 -430.3080964 969.7190000
227.1398258 -419.8065785 970.9500000
221.9244877 -388.5922519 978.1940000
229.8516081 -389.3500296 975.7370000
229.0539118 -398.7201619 974.5450000
228.7567040 -407.0509598 973.2370000
229.4202107 -411.8701266 972.1030000
230.3087264 -371.8482706 978.6770000
229.6093914 -380.0826538 977.3050000
-243.6843440 -667.1286836 981.9090000
-244.0102022 -676.8081164 981.6990000
-243.3196790 -656.7991593 981.9410000
-241.2815533 -638.0353919 981.4720000
-241.8414675 -645.4678750 981.5450000
-240.5942295 -626.9551323 981.5890000
-238.9583871 -616.3463357 981.1510000
-239.1886075 -603.0637264 981.9290000
-237.9166434 -597.4401861 981.4750000
-236.6565850 -589.5088262 981.0940000
-235.5355815 -577.2579096 981.0210000
-234.9864033 -549.7199835 981.9290000
-234.7125247 -565.2228467 981.2910000
-232.1942647 -525.9749775 981.7060000
-232.7002499 -536.5200050 981.5820000
-231.5734671 -495.6105377 981.5560000
-231.5640579 -506.2538589 981.9300000
-232.3410152 -516.1327347 981.9300000
-233.4454791 -475.4958386 981.5390000
-232.2965284 -486.8481754 981.2270000
-226.8852200 -475.4695027 986.1730000
-234.0248938 -445.2994329 981.0390000
-234.5833544 -454.6543582 981.8720000
-234.5854967 -463.4677089 982.2390000
-234.0969426 -468.6229063 981.9400000
-227.4769779 -447.2385001 986.0230000
-228.1945030 -466.7873529 985.5280000
-227.3364597 -457.6453483 986.7420000
-233.0114875 -436.7452056 980.1180000
-231.5030410 -426.5599173 980.7410000
-226.2953203 -427.0888127 986.2960000
-227.1802776 -438.0644492 985.9890000
-231.5619719 -406.0989209 979.8810000
-231.5076635 -414.1522997 980.1530000
-229.1715192 -407.0930455 982.4550000
-229.2270297 -416.1607127 982.4660000
-224.9438039 -407.6365835 987.6110000
-223.6491103 -400.1469231 989.5290000
-224.6266766 -416.6214130 988.2160000
-231.3746088 -379.8855007 981.4950000
-231.1224325 -387.8457705 980.8000000
-231.5529050 -395.1641008 979.6120000
-228.6607586 -377.1717015 984.4630000
-227.7910341 -386.9195967 984.1770000
-227.9868071 -397.2347863 983.6090000
-224.1408602 -388.7406600 989.0400000
-222.7891627 -379.8536504 991.6590000
-219.5790540 -377.5486586 997.9500000
-220.1749572 -388.1691364 996.3550000
-220.3843861 -397.7684116 995.8600000
-229.3152013 -358.9623710 989.9580000
-229.0790250 -367.0366804 986.4600000
-226.7862174 -355.3440176 993.8050000
-221.2079471 -358.3496332 998.3800000
-220.7168475 -367.2964808 997.0570000
-227.0923659 -326.0629115 1001.0030000
-227.5065710 -337.1078405 999.4080000
-226.8586963 -347.0852736 997.1150000
-221.4090425 -347.1665515 1001.2940000
-228.1687563 -736.4236444 984.1770000
-227.9224447 -742.2021007 981.9050000
-225.1857226 -740.3054042 988.4180000
-226.1113469 -751.5163919 979.8650000
-234.1543263 -718.5108038 982.6220000
-234.2719919 -728.2315389 980.7110000
-229.6274243 -718.3768396 988.6430000
-228.2246914 -727.6774876 987.7690000
-226.8360732 -715.3967818 995.8650000
-225.5312813 -717.8197220 999.5090000
-225.7142722 -731.9816637 992.4860000
-224.6727325 -728.1428320 998.8790000
-244.3360603 -686.4875491 981.4900000
-241.1973091 -688.1534485 982.4240000
-241.6273225 -697.5547452 980.9820000
-240.9893749 -707.3014351 979.4840000
-236.5400402 -687.1374903 984.6830000
-236.2065462 -695.3959822 984.2700000
-231.6019789 -696.3248313 989.6000000
-232.1651260 -707.5002757 987.5910000
-228.2491746 -687.6731251 996.9220000
-228.6264090 -698.6741090 995.3430000
-227.3551860 -707.9863392 996.9750000
-241.4863420 -673.7875912 982.7260000
-236.1307768 -667.4060759 984.9960000
-236.3978378 -676.8035603 985.2970000
-230.2684207 -666.7515231 990.4580000
-231.6264878 -686.1409424 989.9240000
-230.5485898 -676.5283084 991.3920000
-227.3350270 -668.0109779 997.1160000
-227.3585942 -678.4345888 998.7750000
-238.7830057 -657.4369835 982.1720000
-235.2062730 -646.2601852 980.0130000
-233.9849030 -658.3566654 985.0010000
-232.0894710 -648.3146503 983.6280000
-229.7113596 -655.8636425 989.0710000
-227.9574383 -646.8080476 990.3510000
-226.9133309 -658.6932744 996.0200000
-225.2149251 -648.2987459 999.3590000
-232.8734795 -618.0702303 979.5670000
-228.3647398 -618.4536519 988.7430000
-229.0899094 -627.0521691 985.8580000
-229.4318805 -637.8795659 984.8320000
-227.7894454 -629.9605794 989.9560000
-227.4346664 -635.2335658 990.5080000
-225.5211205 -617.0561718 998.4270000
-225.3060210 -627.8038170 999.0080000
-225.3462522 -636.8918935 997.9900000
-233.7620482 -607.9984603 979.6420000
-232.5528395 -599.4894705 981.0740000
-227.9591766 -597.4450550 989.1740000
-228.5318481 -606.5608317 987.5650000
-225.5689601 -598.4763003 996.5040000
-224.5390095 -590.5820263 1000.4680000
-224.4903395 -599.9619617 1000.2160000
-225.1467207 -607.5676964 998.5870000
-231.8511915 -586.5473746 980.8630000
-230.5156033 -579.1295517 980.8430000
-228.1429101 -572.1688580 980.4560000
-226.7078596 -566.2875508 986.9670000
-227.5773298 -578.0384873 987.5450000
-228.3923814 -589.9246814 987.4990000
-225.6450485 -578.1884674 997.2120000
-226.0587750 -589.7212947 995.5090000
-224.1669421 -585.1819050 1002.6430000
-233.2791242 -560.9896673 981.0470000
-229.8763919 -547.3613752 980.4300000
-229.8226497 -558.2093389 980.8180000
-225.3572450 -547.4766835 986.9060000
-225.4641507 -556.1794829 988.6760000
-223.6396987 -548.2453024 995.9540000
-224.8655000 -566.1917585 997.9100000
-223.9887683 -557.9146738 999.0400000
-228.4265209 -527.2783176 981.6600000
-227.9487791 -539.8658550 982.2160000
-223.6883895 -519.3029242 987.5670000
-224.1759361 -527.3309809 987.2190000
-224.4111211 -537.6377034 987.4990000
-222.6397166 -538.5365117 997.5060000
-221.5416685 -528.0051378 999.8240000
-227.6478684 -495.4079051 983.6970000
-226.7625466 -515.7283916 981.6690000
-223.7429993 -496.6469519 988.4930000
-224.4227887 -508.8802557 986.3350000
-221.0391227 -497.3171606 997.5930000
-221.3362213 -506.5072377 995.5600000
-221.2541246 -517.3867929 997.4170000
-226.7402651 -485.1027939 985.4130000
-223.0205003 -478.6705160 991.3260000
-223.7354054 -489.8136108 989.5610000
-221.0032142 -478.1242554 998.3770000
-221.6264771 -487.4855570 995.4250000
-222.4496330 -449.7602581 994.7920000
-223.4030035 -462.9864962 992.2830000
-222.4455628 -458.4567055 994.6530000
-221.1219827 -447.3668629 999.4170000
-221.0474000 -457.7930379 999.7510000
-221.6145788 -467.0066657 997.1360000
-221.2541805 -427.1925718 996.6820000
-221.6810440 -436.5349187 996.9060000
-220.7749314 -416.5859798 996.5640000
-219.8488009 -407.2050000 997.5860000
-218.7592028 -413.7398317 1002.4580000
-216.9086940 -762.7763033 980.2410000
-208.5053627 -764.0114018 998.9250000
-205.9146387 -772.6641245 979.5290000
-205.3871703 -769.0101921 987.9190000
-203.4095725 -768.2406227 997.8370000
-222.8084706 -738.9835654 999.1270000
-222.3111721 -748.8233511 987.2860000
-220.5024790 -746.9438370 997.3420000
-218.8813853 -753.5994513 989.7490000
-217.8057560 -752.6295076 996.9290000
-215.4189945 -759.7927860 987.0580000
-214.2408525 -758.1100646 996.3140000
-196.2431073 -773.5162968 989.5080000
-195.7650395 -775.2345015 982.5750000
-193.6307827 -772.9267324 998.8930000
-187.4832399 -775.7131292 988.1330000
-186.0573041 -774.2960151 999.6350000
-176.7349295 -775.9608488 988.3330000
-176.2619353 -774.9833533 997.7610000
-176.1269017 -777.1573951 981.6360000
-166.4054580 -774.9492722 999.1990000
-165.9713922 -776.0001023 987.7550000
-156.0442118 -774.7104054 1000.0420000
-155.9904543 -775.8514326 988.8880000
-144.7491946 -774.5723054 998.4960000
-144.9533996 -776.9866953 979.1060000
-143.7538344 -775.7475289 988.4380000
-136.0531745 -774.2289068 998.9410000
-134.6143288 -775.8424505 985.8260000
-126.9182145 -775.3854721 986.9380000
-125.9684964 -773.9959580 998.1860000
-117.8771129 -773.9329287 996.9760000
-114.8251284 -774.6446349 988.7960000
-112.3819222 -773.8746443 997.1640000
-108.6963539 -774.9951265 984.1450000
-106.2037543 -773.7466199 998.7560000
-104.5429906 -774.5664849 988.7990000
-97.0529931 -773.7220679 998.9320000
-95.1207907 -774.6038258 989.4240000
-93.4540613 -775.5035144 980.2340000
-87.3680611 -773.6247952 998.1340000
-85.6511095 -775.7736143 980.0830000
-84.9262394 -774.8613193 987.4460000
-76.7397632 -773.1181846 999.2740000
-75.4499876 -774.5470331 988.5250000
-64.9803673 -774.3567968 986.5050000
-66.0993970 -772.7822754 998.1720000
-57.5375385 -773.6086351 988.9990000
-54.8142034 -774.9812124 979.3380000
-55.5068608 -772.4170861 997.8270000
-46.3035291 -773.1730861 988.3800000
-44.5664540 -772.0341482 998.4530000
-35.9338917 -772.7763498 988.3360000
-35.2487073 -771.8736325 998.0420000
-26.9302407 -772.5421786 987.8240000
-26.2612874 -771.5025256 1000.8950000
-21.9885627 -772.0329364 993.0510000
-15.7677377 -772.3603630 987.5760000
-14.9643512 -771.5733881 998.1330000
-13.1730056 -772.9085950 981.5850000
-4.5254312 -772.0449945 990.4740000
-4.4607948 -772.7874532 982.6380000
-4.0679740 -771.3873621 999.3260000
2.6923575 -773.5156626 979.2880000
4.4347614 -772.3009006 987.3560000
4.9446162 -771.4470883 997.7060000
15.2169663 -771.3580438 997.5980000
15.4512548 -772.1233757 986.8230000
24.5976488 -771.3054239 996.0080000
25.6043442 -771.6936405 987.8160000
33.5809132 -771.3435119 987.6510000
34.8380551 -770.9194654 997.4120000
43.9083111 -770.8627746 988.8020000
45.5478424 -770.4842287 999.2230000
53.5497428 -770.4193935 989.6270000
56.9123535 -770.0761583 997.8530000
61.6655310 -770.1657660 984.4030000
64.2738601 -769.7354594 998.6280000
66.0666986 -769.8350947 990.7220000
67.3454533 -770.1025633 979.7940000
74.4967409 -770.0145040 979.8680000
75.6664788 -769.5476769 987.9560000
76.3209864 -769.1803232 999.8140000
84.2835896 -769.3489514 987.8630000
86.2993444 -768.8316676 998.9430000
94.3800337 -768.9815163 989.6510000
94.4834835 -768.5448710 999.4070000
95.0716877 -769.7958969 980.2990000
103.1620359 -768.4699717 996.5840000
105.9770974 -768.9019643 988.5440000
115.3944583 -768.2763608 998.6640000
116.8114649 -769.0036285 988.2520000
125.0871884 -768.4387558 998.0700000
125.1957307 -770.1698031 979.2070000
128.2265668 -769.4090630 988.1000000
136.3877280 -768.8341674 998.1160000
137.0023029 -769.7723010 988.4980000
145.7609044 -769.0348572 999.0010000
146.4831312 -770.0275811 988.0430000
155.2892746 -769.1597848 996.9970000
155.2137693 -770.8145008 979.2920000
156.7264517 -769.6679769 988.1540000
160.6884760 -768.5671009 1001.0660000
166.0812184 -768.3121391 989.4640000
166.8646497 -767.1710776 996.9790000
167.8875827 -768.6277752 980.0920000
173.3674293 -762.7991958 1000.7160000
174.2537206 -764.1425531 987.7190000
176.6519573 -763.0283333 979.7550000
179.3475919 -758.3083122 988.7110000
179.8592418 -755.4088722 998.4730000
183.8140891 -752.8066576 984.7190000
185.6064669 -747.3731977 990.0990000
185.1159119 -744.7765620 999.5190000
187.6352002 -733.8455366 1001.2040000
188.9939673 -727.9756242 997.5480000
187.5199961 -746.5327747 980.2060000
188.6349245 -737.7475165 989.6590000
190.8543762 -726.1819440 986.2970000
190.1867288 -706.4024879 999.2720000
190.0720197 -716.5942731 996.4990000
191.8293491 -706.0884567 988.1850000
191.3254006 -718.3542096 987.1720000
190.8332948 -686.3796469 998.7430000
190.6017215 -696.7368763 998.5150000
192.6313372 -677.5196416 989.0910000
192.1397608 -688.1753461 989.4440000
192.3699915 -696.8454042 986.9140000
194.9874840 -677.4487235 979.1550000
194.5148610 -687.0731555 979.4480000
191.2480305 -666.0464194 1000.4070000
192.0670253 -657.1097929 997.4490000
191.4300740 -673.9363090 997.3110000
193.9218391 -656.0684881 986.7150000
193.2392571 -665.7980210 988.3000000
195.4267448 -666.5304603 979.3400000
192.4536472 -637.1093817 999.5590000
192.0001723 -644.1857866 1000.8120000
192.4933406 -645.5248646 997.5180000
193.4671643 -637.2853852 993.7710000
194.9824762 -627.4690994 988.3600000
193.8535551 -645.4441078 989.7300000
194.7326666 -636.1875033 987.4600000
193.9813081 -607.0270537 997.0600000
193.4539571 -614.4774431 998.4490000
192.8947144 -625.1493115 999.4120000
194.2748410 -619.5974710 993.1960000
195.2499815 -608.8646184 990.3920000
195.3491643 -615.4412890 988.6970000
196.6804922 -607.8885815 984.8200000
197.1649838 -626.0669820 980.4710000
194.5739585 -585.0962533 998.2630000
193.9710666 -596.5653512 999.3010000
196.4890182 -586.3609744 988.5270000
195.5574868 -598.2590619 990.6980000
196.9940027 -597.5585970 985.0360000
195.3406187 -556.4952366 1000.0370000
195.2663070 -565.7319083 998.4260000
194.8862271 -575.0673061 998.5690000
197.7155975 -556.7712801 988.6700000
197.2308625 -566.7751002 989.0010000
197.0363598 -575.9972412 988.0720000
196.5231758 -536.6106364 997.7390000
195.9094802 -546.3100585 998.9750000
198.7087841 -536.3089768 988.0600000
198.7959670 -546.5796583 986.4400000
201.6110302 -536.1001295 980.3050000
200.4496005 -553.3796580 981.3790000
197.0554034 -516.5637386 998.3960000
196.9353353 -527.4707785 997.2460000
198.8649427 -516.8545570 989.6670000
199.6888391 -507.4947474 987.7200000
199.4285889 -526.7965141 986.7670000
202.7079593 -514.6470979 980.0720000
202.0937425 -526.7275351 979.9440000
197.7507399 -484.9801561 998.1030000
197.5845172 -495.3591641 997.9060000
197.5667976 -506.4387810 996.8080000
200.2047906 -488.4944135 988.1700000
200.1914247 -498.0556319 987.1370000
204.1534011 -486.0552759 980.1320000
198.1295174 -466.1364628 998.9840000
197.4907390 -477.7289023 1000.6190000
198.7922515 -476.4374221 994.2400000
201.3425171 -466.2308533 987.6460000
201.0529208 -477.0447635 986.8670000
204.4118965 -479.0160188 980.0180000
200.0881855 -436.4170807 998.0120000
199.3276424 -446.4640267 997.2260000
198.6903668 -456.6050742 997.7880000
202.0672090 -446.1526106 988.6820000
202.0959961 -455.8630708 987.0980000
204.4196401 -436.7960339 986.4700000
206.6476725 -456.3064628 979.4840000
207.9458094 -446.0696487 979.1290000
201.2083193 -426.5511640 999.9770000
203.0229407 -418.1212403 999.3720000
202.6439889 -423.6803666 996.5670000
204.5634984 -415.3710434 995.5100000
205.1294558 -427.0879562 988.1300000
206.5490730 -415.2446165 989.5520000
209.4822410 -427.4296266 980.4700000
211.1675517 -417.4716179 980.6420000
206.6252515 -388.2023520 998.0080000
205.0945041 -406.2496138 998.3330000
206.1318538 -397.4676066 997.4530000
210.2364085 -388.6106387 988.9880000
209.4906268 -398.0184390 988.2300000
208.9397777 -407.6420501 986.6800000
212.9816706 -407.5329090 980.6600000
214.1693518 -397.0555527 981.5910000
206.1852938 -378.1316852 1001.8300000
208.9933864 -365.6780367 996.9770000
208.4162985 -376.2670345 995.8200000
213.6692173 -367.5707646 988.8730000
213.3928573 -378.3366457 986.8360000
215.4528868 -387.2380617 982.4680000
219.8770117 -367.6491077 983.0250000
209.4217383 -342.5272744 1002.0040000
208.4697623 -353.5231468 1001.1960000
210.1048416 -356.9898452 996.8510000
212.8619143 -347.6435745 995.0040000
214.2357960 -359.2474726 990.1790000
217.3755343 -349.0382697 989.3410000
221.4888263 -357.5100042 984.0530000
213.6446351 -317.6657184 1002.5900000
213.1047681 -337.1688813 997.5210000
217.2510893 -327.3067285 996.2460000
218.3873510 -316.5106780 998.8590000
224.2846497 -324.8192782 992.3600000
226.6456474 -317.6136330 994.2390000
220.0183226 -306.8410306 1000.9680000
225.1443174 -308.4187944 998.3020000
227.0553186 -299.8166152 1000.5420000
191.4849345 -728.8420232 980.6350000
222.2374874 -378.2451578 979.7600000
226.0706726 -371.0327967 979.9000000
226.6461601 -346.5788993 984.1880000
225.9860903 -358.3802783 981.8760000
229.6754459 -350.8039967 982.5630000
229.7399629 -358.6374283 980.9730000
226.0695376 -337.6687375 987.1330000
226.9641136 -329.3942179 989.4390000
-216.4085479 -358.2907041 1006.5190000
-222.5372498 -327.8667803 1004.1420000
-218.9544920 -336.4476912 1006.5160000
-217.6517430 -327.7300600 1009.4310000
-217.9913713 -347.5719639 1005.7470000
-213.6653485 -327.8077930 1016.9960000
-223.8507150 -307.1735603 1007.0500000
-223.8523930 -317.4043453 1004.8330000
-217.4317994 -318.5613396 1011.6080000
-215.6458319 -306.7299751 1017.0660000
-214.5178925 -318.8273155 1016.9330000
-226.9646386 -288.6787858 1009.8290000
-225.4094481 -297.0973648 1008.3840000
-222.4964602 -285.4067622 1014.4350000
-220.4244253 -297.7392809 1012.7930000
-216.7676091 -288.9515535 1019.4900000
-215.1390895 -298.1956649 1019.6020000
-211.9434852 -298.3397284 1025.9890000
-224.4213604 -256.1898168 1022.8960000
-224.6284903 -260.9438548 1021.0210000
-224.7653068 -264.1139938 1019.7710000
-223.0806444 -269.5725934 1018.8570000
-223.2979444 -276.8523561 1016.2990000
-217.9826457 -256.4971573 1026.8690000
-217.9064674 -265.9527781 1024.3770000
-217.8938912 -273.6341040 1021.8160000
-213.6106469 -276.7211605 1026.7980000
-223.6785979 -250.6946420 1024.3830000
-224.0322584 -717.8504875 1007.1800000
-225.4071693 -688.9215729 1007.1790000
-225.1512471 -696.6783950 1007.7720000
-223.6742850 -688.2871897 1016.4510000
-224.3241801 -700.1787987 1011.4650000
-224.8216475 -708.5382518 1006.5570000
-222.8384280 -688.3482718 1021.3570000
-223.0240837 -699.1903482 1019.4530000
-223.2219932 -708.8759560 1015.5610000
-224.6587219 -667.4129576 1006.8640000
-224.9778546 -678.3005740 1008.2480000
-222.5699292 -667.2885344 1018.0410000
-223.0794566 -677.3233115 1018.1370000
-222.6534528 -680.1070331 1021.3070000
-223.9264132 -648.0852347 1005.1360000
-223.4392302 -657.5587450 1009.7590000
-221.8830842 -649.0770968 1018.1010000
-222.0113738 -657.5079978 1018.3310000
-221.1043033 -659.6120608 1025.3110000
-223.6499314 -619.3730732 1006.1580000
-223.0174398 -628.9526517 1009.6290000
-221.6580821 -618.0275542 1017.4340000
-223.3337695 -637.7314878 1007.6900000
-222.0329339 -626.0755086 1015.6300000
-221.8113786 -637.3115750 1017.9270000
-220.6471219 -627.8018594 1026.9040000
-223.0641333 -599.3449157 1006.8270000
-223.1120409 -609.0255781 1007.4520000
-221.3365199 -597.2906701 1017.0180000
-221.3880542 -608.9174219 1018.2550000
-220.3442341 -597.4798735 1025.7270000
-223.2379978 -568.0125332 1007.3820000
-223.7137648 -577.1106886 1005.5840000
-222.6061918 -578.6440549 1011.1670000
-222.6714922 -588.6153072 1009.8140000
-221.3842131 -576.2193305 1018.3130000
-220.0698200 -569.8125075 1026.9210000
-221.3019724 -587.7282934 1017.8080000
-222.3701109 -548.3513578 1005.3940000
-222.3850416 -557.1846700 1009.3680000
-221.0288540 -547.8332847 1015.7420000
-221.1685962 -553.2627661 1016.7770000
-220.4433308 -550.9622229 1021.4590000
-220.8025249 -557.2478357 1020.3710000
-221.4544666 -566.5353571 1017.5730000
-219.7467762 -549.0586881 1026.4830000
-220.5981705 -529.3715688 1010.0630000
-221.1060722 -535.5899651 1008.6600000
-219.8012554 -528.0419650 1018.3610000
-220.4022245 -539.9709806 1017.8410000
-219.6554173 -496.6351632 1007.9210000
-219.8771903 -508.1195360 1007.4440000
-218.7521528 -496.9239870 1018.1770000
-220.2351547 -518.5560514 1007.6360000
-219.1174333 -506.7786507 1016.7020000
-219.3649524 -517.6394064 1018.4530000
-219.6111775 -479.7106160 1007.0570000
-219.6823069 -487.3504887 1006.7760000
-218.5359809 -477.9195098 1017.1520000
-218.7740930 -487.0434764 1015.8920000
-217.8890364 -487.1158898 1025.4950000
-219.7325973 -449.0523697 1006.6540000
-219.6916968 -457.3966870 1007.1580000
-217.8647201 -446.9782733 1017.9210000
-219.6186653 -468.2995408 1007.4530000
-218.3117721 -457.1480091 1016.6310000
-218.4760390 -467.5964518 1016.5750000
-217.0937778 -460.2991554 1026.4890000
-219.2905796 -423.0720310 1003.0740000
-218.5668220 -427.3172650 1008.0800000
-219.2823246 -437.3771859 1007.3910000
-218.0281615 -437.8201792 1014.5900000
-216.9940685 -427.3313933 1016.8020000
-216.2115612 -437.0435510 1025.3470000
-217.8768082 -408.5188701 1004.6160000
-217.7339527 -416.3862586 1008.1490000
-216.7698191 -405.7447944 1008.9920000
-215.1860502 -405.3232247 1017.1060000
-216.0429953 -416.8965772 1017.6760000
-213.7793398 -407.3384964 1026.9180000
-216.7759748 -377.7045563 1004.7820000
-216.6790928 -388.9658528 1006.1860000
-217.3678765 -397.5615305 1004.6340000
-215.3729425 -388.1606272 1010.5790000
-215.8805831 -397.6575219 1010.7180000
-214.0211889 -377.6092892 1014.8210000
-214.1951956 -387.8822151 1016.0700000
-214.4737787 -396.9524500 1017.5760000
-212.1313231 -377.5327105 1026.0120000
-212.5116220 -388.4310366 1026.6370000
-215.9229260 -367.3575309 1007.0490000
-212.6144573 -358.2602651 1018.5820000
-213.1197452 -368.7973230 1017.7400000
-213.5824850 -338.2196353 1016.0790000
-214.1942925 -348.6088468 1012.8660000
-211.2928837 -327.1028846 1024.0930000
-211.4083429 -333.7119712 1023.6150000
-212.4286142 -349.6878417 1018.8410000
-210.8765601 -339.4401164 1026.8910000
-211.1643841 -309.6627189 1026.1590000
-208.1187651 -761.7725766 1017.3920000
-207.1808482 -764.0289075 1008.4700000
-203.4593421 -766.2738006 1019.5160000
-203.1244965 -767.3801945 1007.9270000
-220.9832812 -740.1510839 1007.7980000
-219.8981551 -737.6842719 1017.5640000
-218.9932875 -736.5779263 1025.5950000
-219.7378499 -745.8914743 1004.9190000
-218.3703365 -742.6523350 1019.3670000
-216.6709313 -751.3615893 1007.7820000
-216.3044057 -749.2374511 1017.1910000
-212.2169543 -758.6585461 1005.9270000
-211.8310973 -757.0018716 1017.8160000
-210.7201564 -756.8330541 1025.9530000
-222.2465821 -718.8730104 1017.7830000
-222.8187076 -728.9233912 1008.4780000
-220.9937453 -728.7166604 1019.9020000
-196.0119608 -770.6103847 1019.0520000
-194.9841290 -771.4029822 1009.4600000
-186.7225319 -772.5714743 1018.7430000
-186.3243335 -773.2176384 1010.5470000
-177.3030933 -773.9988641 1008.4860000
-176.0979091 -773.0282092 1019.3470000
-166.5729158 -774.0522639 1007.8380000
-164.5290978 -773.1338997 1015.8980000
-157.6792639 -773.6528769 1009.5090000
-156.6552643 -772.5157975 1019.1010000
-145.4105681 -773.4232906 1008.1500000
-145.1860883 -772.3146365 1018.1070000
-140.7508669 -771.6566879 1024.0930000
-136.3201032 -772.1396923 1018.4790000
-136.2777071 -771.7468927 1022.5600000
-134.6629622 -773.0365345 1009.3530000
-125.7270038 -772.0285187 1018.5040000
-124.3112752 -773.1662370 1006.2840000
-121.6112365 -772.5080563 1013.1350000
-116.2367919 -772.9039766 1008.3170000
-114.3974187 -771.8934431 1018.0860000
-106.6121185 -771.5827947 1019.2380000
-105.1810102 -772.8051755 1008.1720000
-96.3702018 -771.5191945 1017.4370000
-93.6616652 -772.4447811 1009.3070000
-85.2797317 -772.1712740 1009.1450000
-85.6464432 -771.0470349 1018.7590000
-76.3806860 -771.9339739 1008.5240000
-74.1876786 -770.7445811 1018.7160000
-65.3991857 -770.4915860 1019.6030000
-64.8773191 -771.4326508 1009.4830000
-55.7823951 -771.3510150 1008.3230000
-55.6443204 -770.4486151 1018.5660000
-46.4171286 -771.3070845 1006.7540000
-46.0174663 -770.3703529 1018.1820000
-40.6177644 -769.9865072 1022.3480000
-39.5030589 -771.2765693 1005.8930000
-34.1918898 -770.1411476 1019.5280000
-33.9242194 -770.8652319 1010.2010000
-25.9196531 -770.1391128 1018.5310000
-23.4904255 -770.8264494 1009.3220000
-15.7256441 -770.1034435 1017.7340000
-15.4139758 -770.9056598 1007.2280000
-5.0929064 -769.3041059 1026.7200000
-5.0315492 -770.7770585 1007.6560000
-2.7396147 -770.0299709 1017.0870000
6.0630504 -769.9087123 1017.5720000
6.4321619 -770.7290039 1007.0140000
14.4370118 -770.5088348 1008.8550000
15.5149467 -769.7167689 1018.8680000
24.1976429 -770.4894561 1007.7860000
25.1979997 -769.7327635 1017.4770000
34.3182140 -769.6121837 1017.8270000
35.0354445 -770.3545193 1007.2900000
42.5606450 -769.5081630 1017.8880000
45.9362656 -770.0213205 1009.1560000
51.1661129 -769.3254839 1018.3470000
53.9576648 -768.6963897 1026.6910000
54.4398852 -769.8347498 1007.7680000
57.4067804 -769.2782140 1016.9570000
59.6045884 -769.7595974 1005.1680000
63.9108532 -769.1666568 1015.8650000
65.4363274 -769.4125463 1008.3010000
72.8648245 -768.7524707 1018.4860000
74.7983149 -769.0159882 1008.8230000
83.5919965 -768.4191369 1018.0970000
85.4342220 -768.5772993 1009.3070000
94.3786807 -768.2626629 1008.4780000
95.6137955 -767.9481133 1018.2030000
105.5064347 -767.9252266 1007.9330000
106.7649709 -767.4691798 1019.1490000
114.4924433 -767.2618846 1017.1390000
115.7635773 -767.5567934 1010.0210000
125.8365467 -767.0216743 1017.5130000
125.8681228 -767.8425500 1005.7590000
135.5512875 -767.8274359 1008.6330000
136.4010953 -767.1439005 1016.7190000
132.8520736 -766.5302477 1024.8960000
138.7367925 -766.8362994 1021.0710000
144.2431689 -768.1853452 1008.2710000
154.6534617 -768.7397718 1003.8630000
145.2657008 -767.2027256 1019.0230000
148.6330918 -767.8386329 1013.4300000
155.5621850 -767.2221974 1019.5350000
158.1099213 -767.9560398 1010.4440000
167.6367367 -766.0219968 1007.8370000
168.2926112 -764.2965944 1017.0060000
173.8956374 -760.6972336 1008.8570000
176.0113192 -755.4235595 1019.1330000
177.7910711 -755.6073746 1009.3050000
181.8857447 -748.4008258 1009.9490000
181.6218818 -745.4275143 1018.7270000
184.3026823 -731.5603929 1025.9350000
185.2533618 -723.7575579 1026.7320000
183.4663697 -745.2385530 1008.1910000
184.6525377 -736.3962868 1016.6590000
186.0280432 -726.3077802 1018.7460000
185.8593124 -737.3350364 1007.7200000
187.5067506 -725.8479081 1009.0990000
186.0318735 -705.9325802 1026.5250000
186.6916163 -702.7058018 1022.0540000
186.0676873 -715.9528317 1024.1550000
187.2145661 -706.9515361 1018.3080000
187.0534834 -715.9637912 1017.3360000
188.7589438 -706.1541030 1008.7190000
188.4581016 -716.8556054 1007.7160000
188.0209061 -676.7037112 1017.7640000
187.5258597 -686.6303389 1018.7120000
186.9572837 -695.6189887 1020.8900000
188.7081500 -681.7678791 1012.6090000
187.5658019 -698.3474070 1017.0470000
189.8820810 -676.5764390 1006.5590000
189.4157490 -686.4272809 1007.5980000
188.6680444 -695.3751635 1010.8240000
188.9383716 -656.4184822 1017.0410000
188.3068763 -666.7688299 1018.3620000
190.5201662 -657.6028515 1007.0370000
189.8376193 -666.0354522 1009.2260000
190.2834557 -667.3533243 1006.1490000
189.0144160 -636.2734519 1020.8610000
189.2864445 -645.6016574 1017.2340000
191.1672465 -635.7039162 1007.4270000
191.1378574 -644.4385929 1005.9750000
190.4533094 -606.7123709 1018.2050000
190.1183974 -616.3117098 1017.8840000
189.7297759 -626.8117952 1017.9320000
192.2853160 -605.0597521 1007.1570000
191.7079403 -615.5373007 1008.0890000
191.2171817 -624.7264960 1009.0560000
189.9650764 -586.9245199 1025.9680000
191.5031567 -585.3385373 1016.6330000
190.7173840 -596.4081760 1019.1080000
192.6792964 -584.9867058 1009.5510000
192.2563030 -597.4171410 1009.1570000
190.8262523 -558.4823452 1026.3030000
192.0753887 -555.9766798 1019.5910000
192.0269306 -566.5356364 1017.5150000
191.4006024 -575.7139747 1019.2910000
194.0717173 -555.4175436 1007.7710000
193.6185680 -565.9782357 1008.2410000
193.5961694 -576.2393301 1006.0580000
191.6490751 -534.5058211 1026.1810000
191.6544991 -544.0014274 1024.6420000
193.1344222 -536.4828006 1017.2360000
192.5087113 -548.5110374 1018.6360000
194.7321641 -536.1768889 1007.9030000
194.1644993 -546.4745995 1009.0770000
193.5892022 -514.7969159 1018.0890000
192.9207795 -524.6170275 1020.2540000
193.9726044 -520.7409505 1014.9870000
193.9210990 -526.0797773 1014.4420000
195.3733751 -516.1234648 1007.8880000
194.9347573 -526.6442716 1008.5840000
193.2486480 -485.5419106 1026.0140000
194.7946527 -486.5846216 1016.6410000
194.0433215 -497.4785936 1018.9900000
193.9751350 -506.5993580 1017.4090000
196.2618059 -484.0538621 1007.2860000
195.6031483 -494.0836226 1009.9530000
195.2865463 -501.9017793 1010.5440000
196.6852668 -487.7157036 1003.7730000
196.0540827 -498.0510212 1006.3660000
195.8217399 -506.4206201 1006.6910000
194.9028062 -465.9234257 1018.2940000
194.6720783 -476.1562554 1018.9690000
196.7471712 -465.8850266 1007.6590000
196.3537688 -475.3497554 1008.5500000
193.6826410 -445.8045228 1026.9400000
195.2188694 -446.7409774 1018.0260000
196.0892216 -437.0108074 1017.1560000
195.4750816 -455.9172262 1015.6520000
198.1976017 -436.8690253 1006.4390000
197.3012948 -447.3548085 1007.4650000
196.9568237 -457.3387779 1007.6970000
197.3744586 -429.0555510 1015.8910000
199.6571858 -415.6996807 1016.7610000
199.4760992 -425.3536341 1008.7490000
201.7844034 -416.3866942 1006.1590000
201.6759048 -397.5134194 1017.3960000
201.2754661 -404.7179342 1016.4830000
202.9774029 -406.0091814 1007.7600000
204.0882327 -395.9627669 1006.3280000
201.6135255 -364.9641228 1026.5520000
203.3854506 -364.5489765 1016.7190000
202.6716830 -376.0806490 1017.9570000
202.1968274 -386.4878652 1017.9120000
204.6328585 -376.6346850 1008.3660000
205.7237431 -368.0209841 1005.7700000
204.3005725 -386.1007456 1007.9820000
202.5834741 -345.4443809 1026.2820000
204.4970756 -344.3851315 1016.5170000
203.6000935 -355.7391598 1017.8790000
206.8710911 -346.4850313 1007.3650000
205.8543200 -358.1297254 1007.6500000
204.1241771 -315.7637181 1026.0350000
203.1422498 -335.3285877 1026.0870000
205.2002774 -324.5639941 1018.9470000
206.2897472 -315.2665682 1017.8700000
205.1082270 -334.3361574 1016.8940000
209.8929812 -316.4882596 1008.5060000
208.2454676 -335.6636374 1006.5580000
209.5926005 -326.1518526 1006.3920000
205.3597285 -295.5946541 1025.8830000
208.6615066 -296.1314658 1016.9530000
207.9918809 -305.2769052 1016.0390000
211.5288715 -307.9212367 1008.8030000
212.4681142 -297.4151182 1010.1100000
215.4319375 -307.1615204 1004.2300000
218.5265255 -297.1471237 1005.0330000
205.9469279 -286.1177695 1026.1570000
207.2696821 -277.9861117 1024.6230000
210.2141785 -285.4521520 1016.6880000
211.2569134 -276.0693279 1017.5260000
213.5664720 -267.9256299 1016.8120000
213.3770772 -287.3239395 1011.5070000
219.2615298 -288.2985119 1006.7300000
221.5054240 -277.6927219 1008.3080000
223.5036699 -268.2539632 1009.0950000
227.7333008 -268.6149736 1007.2410000
229.0343672 -278.5843053 1005.4870000
229.3129193 -287.7805773 1003.8970000
208.3985743 -266.2990283 1025.2510000
209.6860570 -255.4037801 1026.0140000
211.4306928 -246.7067402 1026.2260000
214.3658360 -257.3661170 1019.1870000
216.9309714 -247.2993763 1020.0310000
217.8552017 -263.8248125 1013.8100000
223.0422105 -261.8252813 1011.2780000
223.7598323 -255.2979878 1013.7400000
225.2400855 -247.2363233 1016.1320000
227.8473163 -258.7523806 1010.7760000
213.8422029 -235.5504642 1026.7040000
219.1588827 -238.3334334 1021.0770000
221.4746727 -229.5448245 1022.4920000
223.7382064 -237.9330241 1019.1630000
225.7053183 -228.2305483 1020.9380000
224.4165855 -216.5598172 1024.8520000
-212.0281527 -288.0632440 1027.6440000
-212.0072174 -267.2860050 1031.3130000
-210.5202559 -258.9067165 1036.6310000
-209.6635086 -269.6061013 1036.5010000
-209.0469408 -278.3350551 1037.1140000
-207.1471502 -259.4658296 1046.4900000
-220.5760426 -234.9441120 1028.7340000
-219.1964525 -245.9090762 1028.2390000
-214.6266943 -238.6878780 1033.9460000
-213.4140589 -242.5542790 1034.5810000
-210.9434762 -242.3227233 1038.6620000
-210.3373766 -249.2207976 1038.9860000
-208.4473284 -238.7928447 1045.0250000
-207.0942268 -247.3413047 1048.3320000
-221.0769290 -219.4314264 1031.0520000
-220.5942298 -214.4304663 1032.5590000
-219.8696829 -206.9290696 1034.8210000
-221.0752740 -223.7610462 1030.1010000
-221.0756113 -228.0904916 1029.1510000
-215.4519433 -206.4020957 1038.8080000
-215.3981993 -217.4106707 1036.8350000
-214.7622256 -227.6962392 1035.9980000
-211.6102173 -206.8024476 1043.7700000
-211.7201834 -216.8711780 1041.7820000
-209.0275202 -209.2478500 1047.6880000
-208.4699153 -217.9164351 1048.0150000
-208.2443540 -227.7183934 1046.9230000
-218.6979358 -184.7126539 1042.9040000
-219.1910757 -191.4392708 1039.8730000
-219.1571626 -197.4310269 1037.7800000
-216.4297703 -198.6011876 1040.0150000
-213.1196185 -189.6797376 1046.3680000
-211.7457278 -197.6578391 1045.8940000
-218.5795536 -157.8878953 1050.2040000
-218.1445583 -166.2827526 1049.0920000
-218.9023075 -175.6322882 1046.3390000
-213.5015653 -179.1754768 1049.1540000
-221.6948155 -688.9763342 1028.4320000
-221.4320147 -697.1593777 1030.4680000
-220.7980660 -666.9085164 1028.9880000
-221.4834565 -678.2649955 1027.8860000
-219.7318301 -668.8799468 1037.4450000
-219.7810130 -680.3191900 1039.1260000
-220.7467083 -649.5469264 1027.7960000
-219.9106729 -644.4313253 1037.1550000
-219.7993375 -649.8135096 1037.9150000
-218.7274741 -640.6370093 1048.9180000
-220.3282943 -660.6325778 1031.3270000
-218.9509193 -648.4803812 1047.5930000
-219.6317266 -656.5718353 1038.4080000
-218.7106819 -657.8048015 1048.4090000
-220.5054550 -618.5640538 1027.1650000
-219.4413312 -617.6453022 1037.0180000
-220.6181613 -637.4300215 1028.8560000
-219.5451892 -628.2867443 1037.4890000
-218.2614957 -618.1691249 1048.1590000
-219.6156300 -638.4773834 1039.5710000
-218.5626283 -628.5182611 1047.1110000
-218.3486510 -631.3848185 1049.7820000
-219.5147358 -597.9349005 1035.6350000
-220.3039681 -608.0917643 1027.8800000
-219.2862342 -608.9768336 1038.1490000
-218.3139419 -600.7663311 1047.8360000
-218.2347832 -609.4994624 1048.0780000
-219.9610018 -579.4687365 1028.2190000
-218.9349913 -570.0131780 1036.7530000
-220.1305743 -586.5127620 1027.4100000
-219.0253546 -579.2153192 1037.2990000
-217.7370301 -567.8744487 1047.8470000
-219.3108650 -590.1661064 1036.6900000
-218.0813892 -578.9586144 1047.2550000
-218.3468421 -588.5098239 1046.6610000
-219.8061545 -558.5606709 1027.9270000
-218.5140512 -548.8402961 1036.8430000
-218.6928013 -558.0889108 1037.0700000
-217.2835159 -547.6831410 1047.2180000
-217.4004441 -557.6478689 1048.4630000
-218.6273877 -519.4435547 1027.7980000
-218.9570346 -526.6191293 1026.9950000
-218.8164004 -530.7370564 1029.7150000
-219.2708594 -537.7902873 1027.5340000
-217.8724026 -526.7280758 1037.3160000
-218.1820904 -537.0373145 1037.1900000
-216.7650658 -528.2985628 1047.1230000
-216.9682303 -536.8624440 1047.4350000
-218.0453061 -498.9071392 1027.1790000
-218.3227987 -508.6189104 1027.1030000
-216.8897758 -497.3910813 1038.1350000
-217.3117618 -505.2893581 1036.6010000
-217.8486538 -514.7304912 1034.3010000
-217.2680579 -512.6722613 1039.1060000
-215.6862606 -498.5965617 1048.3840000
-217.4231210 -518.8161259 1039.3000000
-216.3161546 -509.6055554 1046.2910000
-216.3782153 -515.3289256 1047.2170000
-217.4572013 -478.0379825 1027.5360000
-216.2573905 -476.4976916 1037.3730000
-216.8024860 -489.4976522 1036.5050000
-215.2611506 -480.6001307 1046.3600000
-215.7018150 -488.5168497 1045.4430000
-215.9946601 -493.9178792 1044.7060000
-216.3630234 -448.9175343 1028.5550000
-217.2811689 -468.5221140 1026.9550000
-214.9269202 -449.1626316 1038.4070000
-215.7292051 -459.1015284 1036.2980000
-215.8442348 -467.3579209 1038.0140000
-213.3551025 -447.9138726 1048.5040000
-214.2528752 -458.7147271 1046.4830000
-214.8019677 -469.5229993 1046.3160000
-215.0527190 -426.6319314 1028.3480000
-214.6919452 -439.0074676 1036.0070000
-213.6289874 -427.4200167 1037.9750000
-212.3923571 -426.7783544 1046.1530000
-213.0091922 -438.5674548 1047.0390000
-214.5946862 -418.4707960 1027.4140000
-212.3221458 -407.2622089 1037.1540000
-212.9147642 -417.6500878 1038.2190000
-210.9999945 -406.4232495 1047.0320000
-211.7174217 -418.0770679 1046.9940000
-212.9570840 -397.1483842 1027.2370000
-210.7832188 -380.2063796 1037.5660000
-211.3232385 -388.3523115 1035.7690000
-211.7640749 -397.5790004 1036.5000000
-209.5939796 -377.6051301 1048.1360000
-210.0038631 -387.6024492 1047.4310000
-210.7766401 -398.2596511 1045.0010000
-210.9263923 -359.5723826 1028.8560000
-211.5019851 -366.9201770 1027.2110000
-210.1613482 -358.8824352 1035.5630000
-210.3993827 -368.2694094 1036.8150000
-209.2804759 -358.9223602 1046.8930000
-209.4039927 -367.6658666 1047.5840000
-210.2724868 -328.9327813 1029.7140000
-209.2347405 -328.8318428 1036.7500000
-210.8475087 -349.3885051 1027.6570000
-209.5887964 -338.0189445 1036.0740000
-209.6207365 -346.9089900 1037.3710000
-208.3861275 -337.0540924 1047.7490000
-208.7560589 -346.3652826 1047.7420000
-210.5483935 -318.0081630 1027.7650000
-209.1716940 -307.7912719 1033.6960000
-208.2221439 -306.9658898 1038.9410000
-208.8811564 -318.6519220 1036.7890000
-207.4756621 -308.8631697 1046.1460000
-207.5605278 -317.4976299 1048.0400000
-208.1199318 -326.0142831 1045.6660000
-208.9312128 -287.8664111 1036.0710000
-208.7434545 -297.8939331 1036.3330000
-206.9363240 -278.8790776 1046.7350000
-207.0831899 -287.5452548 1045.8400000
-206.7837585 -290.9151756 1049.3390000
-207.2273672 -298.3377577 1046.5940000
-207.3559098 -268.7820862 1044.6380000
-207.0101322 -761.2170865 1027.5130000
-217.1448784 -738.4782571 1037.9500000
-217.2443949 -743.1955343 1027.1630000
-214.2385224 -750.4993064 1028.2230000
-213.0834780 -750.0673314 1038.7920000
-212.3727427 -749.0343452 1048.0530000
-206.3313023 -759.9865680 1039.1840000
-205.2394278 -759.6685208 1049.2770000
-220.7598510 -718.8033224 1028.8970000
-219.5288772 -720.0965299 1038.7810000
-219.7883719 -730.1762699 1027.4220000
-218.6890887 -717.6343530 1047.8850000
-218.8831217 -728.7557622 1036.7450000
-217.9045849 -726.6008472 1048.3430000
-217.0714581 -734.1281025 1046.2640000
-220.2697269 -689.7374351 1037.9360000
-221.4512914 -709.3008998 1027.9890000
-220.0765735 -700.0475024 1040.6400000
-218.6934651 -688.3575645 1047.9120000
-220.2113939 -710.1823181 1038.1810000
-218.6744647 -698.1454664 1050.0760000
-219.1405465 -708.0967122 1047.4870000
-218.4633970 -669.2860434 1047.9870000
-218.4332470 -676.1698661 1047.5940000
-201.9069004 -766.1185139 1029.3040000
-196.0725322 -767.0344982 1048.2890000
-195.7983000 -768.5812851 1038.2620000
-195.0681557 -770.4931968 1028.6330000
-185.8781381 -772.1334011 1028.0070000
-185.6497996 -769.7873747 1049.3420000
-183.3459494 -771.1403169 1038.5560000
-176.5281613 -771.1535767 1038.0010000
-175.5864954 -770.1658898 1047.3740000
-175.0116694 -772.1435147 1027.9070000
-166.6973038 -770.6665391 1039.3770000
-165.0777044 -771.7859562 1028.1710000
-164.2556685 -769.7217464 1048.2400000
-157.3480653 -769.3624163 1050.2910000
-157.2075775 -771.5429583 1028.2260000
-156.5745576 -770.5262607 1038.1570000
-152.4058920 -769.9433658 1043.2650000
-147.5832276 -771.3510453 1028.1980000
-146.0631827 -769.3860486 1047.8470000
-145.1699844 -770.3636159 1037.8270000
-142.3388677 -771.1513616 1029.5130000
-137.3073411 -769.0358378 1049.7960000
-136.9943996 -770.1172274 1038.8730000
-135.6737711 -771.1773619 1028.3090000
-126.9898872 -769.0450984 1047.4120000
-126.5143573 -770.9758908 1028.7370000
-125.2191670 -770.0090951 1037.4660000
-117.5153389 -768.9464844 1046.6720000
-116.8101739 -769.7750967 1037.8870000
-114.2244331 -770.4841571 1030.6490000
-107.1369993 -770.5832447 1028.0980000
-106.1912759 -769.4172329 1039.2550000
-105.8095818 -768.5321316 1049.8130000
-95.0065458 -768.5306727 1048.2260000
-95.0937295 -770.3670622 1027.4920000
-94.2328797 -769.3863583 1037.5860000
-85.3389727 -768.4218431 1048.5310000
-84.2026730 -769.8643674 1030.2330000
-83.0854149 -768.9291842 1041.3670000
-76.7276900 -768.1864702 1050.5800000
-75.0320452 -769.1710018 1037.1120000
-75.0813484 -769.9135303 1028.0630000
-69.4304949 -768.3169592 1047.5560000
-66.9641108 -768.9985122 1038.3160000
-64.9763340 -769.8198840 1027.6230000
-63.2890994 -768.1525916 1049.0180000
-59.5862023 -768.8409397 1039.3890000
-55.8411823 -768.0955031 1048.8310000
-55.8157748 -769.6064672 1029.1170000
-54.2997893 -768.7423056 1040.0320000
-46.6144112 -768.0856316 1047.8950000
-45.8387544 -768.7969413 1038.3140000
-44.8167132 -769.5639367 1028.3210000
-36.7476954 -769.3985687 1029.3900000
-35.0084015 -768.6904636 1038.3590000
-34.8386691 -767.8861963 1049.3120000
-26.3024462 -768.4011366 1041.0480000
-24.7570714 -769.3624831 1028.3720000
-16.6593466 -768.5511590 1037.8840000
-15.2302704 -767.7908179 1048.0190000
-14.8318337 -769.2601351 1028.4650000
